375.14102,373.32248,368.56598,362.30853,355.75928,349.12665,342.30197,334.2707,323.14426,310.46924,299.69736,292.25156,285.48587,276.12997,266.8557,259.24823,252.84724,247.68968,243.33234,239.06093,234.92683,232.50787,231.43509,230.50583,228.1599,223.29013,217.10347,211.45956,206.76636,202.27165,197.25589,192.26117,187.63779,183.83188,180.89772,178.39021,175.79416,173.1232,170.76138,169.22963,169.35393,171.28384,174.22946,176.99577,178.54391,178.85211,177.71362,175.01924,170.38011,163.73383,156.62439,149.99902,143.47708,136.65103,128.00473,120.08454,118.87997,125.388054,130.10326,124.91156,117.11543,113.05997,112.1383,112.85513,116.88469,122.37042,126.23254,127.54946,128.86385,135.53444,147.60094,157.63036,165.9609,173.057,174.94574,178.41132,188.85802,202.59152,217.08337,237.05891,267.8691,299.59283,315.90103,307.96613,275.86972,240.3023,227.43744,232.72108,236.5912,230.46512,217.98085,209.12665,210.1339,215.17194,229.41713,275.37027,323.64908,319.85165,318.21042,348.94434,367.68594,371.56488,359.32138,342.01062,374.9928,438.0355,456.621,428.73602,414.26974,401.01508,364.6378,378.97928,461.1045,486.64377,403.28806,321.58325,313.86285,347.26703,376.46198,396.63892,430.7651,510.52145,635.13403,676.58856,632.0864,597.8647,576.95984,557.24146,538.1575,521.93994,502.21365,477.8352,460.94583,459.19476,464.5851,478.62808,517.7802,589.0435,682.8864,769.67163,830.996,879.6504,930.1324,957.81195,963.4694,948.0635,904.71985,865.9332,838.23395,759.1029,636.1727,563.2571,516.5766,465.25494,439.83777,472.46906,543.25226,578.2449,608.5167,683.9377,752.62775,775.60986,773.2431,755.32465,726.75195,690.284,653.5735,647.47,674.05225,694.86285,697.82184,697.60767,701.38855,703.6921,709.7115,725.0994,729.7845,706.32477,659.2368,609.26874,599.0814,596.2937,545.50995,472.5594,400.79626,330.1908,269.03647,212.20581,151.0946,88.16662,50.0207,48.358162,74.93908,124.391174,179.5625,221.76202,259.2364,287.47766,273.18518,225.49162,215.88438,306.64645,473.7215,636.35284,737.84784,753.07947,708.0547,636.9451,568.80896,587.8619,679.4312,712.82007,634.0778,539.4563,578.6369,696.22705,749.17664,749.0304,767.17395,803.5679,813.5179,791.2094,745.5173,736.14996,794.94617,826.7372,772.1783,691.3761,658.474,683.49854,699.21893,642.5352,538.0064,445.16415,394.68103,404.84604,431.26346,408.33185,348.974,294.8747,255.45027,209.7632,134.65231,51.350426,8.220537,0.26786688,5.634453e-19,2.0666839e-16,0.0,0.0,0.0,0.0,0.0,0.0,0.0,0.0,0.0,0.0,0.0,0.0,0.0,0.0,0.0,0.0,0.0,0.0,0.0,0.0,0.0,0.0,0.0,0.0,0.0,0.0,0.0,0.0,0.0,0.0,0.0,0.0,0.0,0.0,0.0,0.0,0.0,0.0,0.0,0.0,0.0,0.0,0.0,0.0,0.0,0.0,0.0,0.0,0.0,0.0,0.0,0.0,0.0,0.0,0.0,0.0,0.0,0.0,0.0,0.0,0.0,0.0,0.0,0.0,0.0,0.0,0.0,0.0,0.0,0.0,0.0,0.0,0.0,0.0,0.0,0.0,0.0,0.0,0.0,0.0,0.0,0.0,0.0,0.0,0.0,0.0,0.0,0.0,0.0,0.0,6.1366944e-16,0.0014109071,4.523685,36.50793,119.38759,228.39069,303.34882,323.86322,325.0793,319.81497,264.3699,158.09677,79.40614,81.5363,143.16585,209.01639,229.54861,240.77461,338.67773,435.813,391.0551,314.82065,324.28708,405.70755,545.51245,759.11096,1039.1204,1297.081,1378.7429,1308.0479,1234.0168,1140.1267,1020.99286,962.75305,919.77576,835.93164,769.36005,730.522,659.3491,550.73334,449.2826,387.1167,366.1742,366.09464,374.60736,390.71072,426.1984,490.607,536.0032,535.42065,452.8896,316.54172,239.46158,238.39836,302.45462,354.2801,323.86713,253.91019,196.37192,152.65092,112.81448,75.926216,49.59294,32.748158,21.944304,13.555478,6.1037226,1.6458001,0.24525137,0.030837763,0.004147401,0.00022153086,0.00045340566,0.00013222327,0.0016629569,0.011318276,0.027440846,0.047794756,0.279707,1.2090552,2.2843304,1.8471655,0.5838682,0.13433158,0.07053368,0.01656388,8.230081e-15,9.008512e-16,1.16605164e-14,1.7753673e-14,4.4182187e-15,8.7804415e-17,0.0,0.0,0.0,0.0,0.0,0.0,0.0,0.0,0.0,0.0,0.0,0.0,0.0,0.0,0.0,0.0,0.0,0.0,0.0,0.0,0.0,0.0,0.0,0.0,0.0,0.0,0.0,0.0,0.0,0.0,0.0,0.0,0.0,0.0,0.0,0.0,0.0,0.0,0.0,0.0,0.0,0.0,0.0,0.0,0.0,0.0,0.0,0.0,0.0,0.0,0.0
380.47247,375.95908,370.18906,362.74435,354.99524,347.56628,340.80908,333.90033,324.2496,312.89297,302.68408,294.43665,285.61682,275.60196,266.89886,260.22333,255.2373,251.55043,247.79482,243.59787,239.24017,235.76599,233.02847,230.49535,227.1204,222.56775,217.40126,212.09265,207.42789,203.33598,198.95573,194.5456,190.31403,186.44455,183.10194,180.32117,178.01346,176.26906,175.08586,174.74818,175.61664,177.85231,180.63689,183.04814,185.09871,186.0942,184.0026,179.81859,173.63733,166.46663,159.57411,152.53886,145.22841,137.57785,128.60251,120.45474,117.01788,118.54233,119.2852,115.69053,111.738106,112.02567,115.66801,120.1404,123.55603,125.04911,124.17163,122.33538,123.81297,136.08144,153.58896,167.08617,177.66022,183.15488,182.28065,182.11751,190.3137,206.79625,229.08374,258.39786,292.56497,315.35574,311.40714,284.8437,252.40071,233.93297,236.74861,253.07823,262.00522,251.1411,230.91518,216.67525,217.08267,221.87677,232.91743,268.6416,306.56677,324.8809,333.73166,353.13672,377.30447,396.12393,391.8134,371.6351,388.77118,465.94864,545.1853,565.65094,539.5049,481.44238,415.4468,405.2004,462.3422,449.69604,345.49835,291.40094,305.54025,353.2089,402.91016,451.69223,508.7841,590.73114,693.2643,749.54755,734.20746,694.09766,655.9597,619.67065,586.7307,560.265,536.38354,511.66315,493.34973,487.4166,489.76874,505.07776,551.4836,638.5842,745.93756,821.71985,839.3446,836.6987,851.4315,872.37866,885.8408,872.1444,823.61273,776.3658,736.47296,657.8251,549.72076,479.02383,439.94885,416.8423,404.1493,419.7045,456.37338,478.61304,533.4447,649.9959,754.0572,786.6265,782.58,776.6573,755.0413,706.68024,660.1206,660.1274,704.2626,742.0694,748.7748,755.7488,768.26556,768.5467,763.4035,757.6829,751.1227,724.8721,675.2135,635.70526,628.47064,620.3449,575.7117,503.91275,415.12573,324.39124,248.38048,178.10619,109.6454,55.678513,35.582516,48.372692,79.85291,118.24088,150.34317,171.90663,193.68687,205.34357,189.87477,166.40758,198.20027,323.89227,496.31635,641.86334,724.04956,731.6404,688.70496,641.4519,617.03265,627.9371,669.2643,672.86536,578.8025,476.12897,511.85675,621.12494,675.6143,697.9188,719.7847,715.12396,675.63416,617.6476,578.1245,615.0302,719.2027,794.5671,783.1414,707.21246,626.8371,594.3458,580.4636,523.4819,451.12555,399.19223,344.3733,306.3028,309.4285,302.73172,264.56235,219.1229,175.45761,126.784874,65.395035,18.843979,2.1595802,0.06668624,0.00012738712,0.0,0.0,0.0,0.0,0.0,0.0,0.0,0.0,0.0,0.0,0.0,0.0,0.0,0.0,0.0,0.0,0.0,0.0,0.0,0.0,0.0,0.0,0.0,0.0,0.0,0.0,0.0,0.0,0.0,0.0,0.0,0.0,0.0,0.0,0.0,0.0,0.0,0.0,0.0,0.0,0.0,0.0,0.0,0.0,0.0,0.0,0.0,0.0,0.0,0.0,0.0,0.0,0.0,0.0,0.0,0.0,0.0,0.0,0.0,0.0,0.0,0.0,0.0,0.0,0.0,0.0,0.0,0.0,0.0,0.0,0.0,0.0,0.0,0.0,0.0,0.0,0.0,0.0,3.1925413e-16,0.0012483114,0.0056325863,0.0056553795,0.0017736804,0.00017672608,1.1040151e-16,0.0,0.0,0.0,0.0,0.0,0.0,9.9431135e-29,1.1097288e-12,4.260532,37.37273,128.63127,239.56091,290.77872,293.64316,325.7316,373.92352,325.8884,180.37462,85.21204,105.557236,189.6583,261.14557,262.73486,241.34117,289.35223,376.8288,377.5526,313.06888,332.45502,454.02115,655.2034,913.5891,1125.9833,1210.8759,1165.5729,1122.5946,1153.5244,1092.1841,949.3022,903.29,895.5398,831.7466,803.8294,814.4322,734.89667,568.82526,423.69778,349.20724,339.21835,368.1299,409.9688,460.35864,517.6743,568.4913,589.6163,573.8167,502.45215,377.40295,264.03738,208.21342,221.2759,245.84828,228.08463,186.84564,149.11293,116.270676,88.65091,67.03481,50.756107,36.95893,25.67117,16.740908,8.146433,2.236043,0.2787247,0.011074271,0.0014427268,0.0035306825,5.3589684e-14,1.4300812e-13,0.011135805,0.083762646,0.2202739,0.2876402,0.5878778,2.006151,3.5919137,2.9442573,0.9790043,0.110451326,5.11055e-14,4.8914725e-15,1.5333057e-16,0.0,0.0,0.0,0.0,0.0,0.0,0.0,0.0,0.0,0.0,0.0,0.0,0.0,0.0,0.0,0.0,0.0,0.0,0.0,0.0,0.0,0.0,0.0,0.0,0.0,0.0,0.0,0.0,0.0,0.0,0.0,0.0,0.0,0.0,0.0,0.0,0.0,0.0,0.0,0.0,0.0,0.0,0.0,0.0,0.0,0.0,0.0,0.0,0.0,0.0,0.0,0.0,0.0,0.0,0.0,0.0
387.63544,380.65268,373.04358,365.14816,355.91812,347.20538,339.24014,331.43002,323.44867,314.62756,305.47064,296.4815,287.21503,278.4549,271.13818,265.6095,261.8282,258.6559,254.7166,250.60236,246.58408,241.83679,236.53775,231.2249,225.91284,221.15645,216.61496,211.74115,207.09422,203.08565,199.50565,195.79828,192.13031,188.68239,185.52013,182.81685,181.19096,180.7075,180.82051,181.25731,182.4396,184.69324,186.97234,188.66476,190.55956,191.08961,188.45247,183.88535,177.29561,169.39996,161.56584,153.5598,145.48619,137.82152,130.00487,122.09171,116.554306,113.919815,111.64358,109.494774,109.61123,114.31833,122.10154,127.72785,126.53276,122.8867,120.12771,120.86522,129.23627,146.1732,163.70496,178.42697,189.99095,194.62608,191.68874,188.67377,195.52715,216.19377,245.98537,277.58676,299.89435,301.2036,280.56454,254.81914,238.78912,238.98907,249.66536,272.9322,285.96982,272.5545,251.50157,239.04364,240.04346,244.91728,245.71199,254.69838,284.10712,321.45468,344.80606,368.35034,404.04593,433.61575,434.1669,413.35345,425.07117,522.74005,656.1991,695.3003,608.6201,497.8124,417.02133,372.00513,383.20227,364.76144,305.21603,293.70813,322.50607,381.2497,447.24744,504.94058,550.4139,596.09607,682.05414,777.529,809.454,776.38617,726.0383,682.164,640.4179,603.619,570.0505,541.7924,521.1971,509.63174,507.2215,518.3069,558.5582,637.85254,725.0642,750.4885,713.1146,685.15985,702.2137,733.02594,759.96954,774.1524,773.3091,745.884,685.0616,613.7821,531.0256,443.87326,385.55334,364.21548,365.8753,391.6669,427.05756,449.85492,504.78772,609.98145,698.21436,730.4317,751.9249,782.07733,779.7101,728.63763,679.99225,679.79425,731.5517,786.6224,812.1921,829.0555,827.84686,808.5653,791.6381,765.46484,736.88715,702.806,665.2209,642.0299,634.0906,609.0657,551.4905,472.53888,375.63885,282.71176,204.47401,132.32315,68.10456,30.676737,29.473095,54.663692,86.47295,98.351364,83.17656,74.494446,85.156624,101.435715,110.86727,126.73954,194.68338,316.31226,447.718,570.8756,661.76685,687.87317,676.3839,671.8209,668.9361,643.98615,622.2187,600.2543,530.73004,437.72375,424.7853,488.84314,581.2541,692.96954,760.2127,741.96295,655.91425,543.0026,465.55447,474.5329,543.7554,613.10693,658.42035,665.5448,622.32074,547.19293,468.43335,387.7954,316.73135,277.15024,236.716,189.12787,179.11804,177.11597,150.8087,109.615654,67.312,37.090935,13.984852,2.9438663,0.28846413,0.009049569,2.6200911e-27,0.0,0.0,0.0,0.0,0.0,0.0,0.0,0.0,0.0,0.0,0.0,0.0,0.0,0.0,0.0,0.0,0.0,0.0,0.0,0.0,0.0,0.0,0.0,0.0,0.0,0.0,0.0,0.0,0.0,0.0,0.0,0.0,0.0,0.0,0.0,0.0,0.0,0.0,0.0,0.0,0.0,0.0,0.0,0.0,0.0,0.0,0.0,0.0,0.0,0.0,0.0,0.0,0.0,0.0,0.0,0.0,0.0,0.0,0.0,0.0,0.0,0.0,0.0,0.0,0.0,0.0,0.0,0.0,0.0,0.0,0.0,0.0,0.0,0.0,0.0,0.0,0.0,0.0047792657,0.043745015,0.23097844,0.6867532,0.8548523,0.4763485,0.12280972,0.012109607,6.7641074e-15,6.334279e-19,0.0,0.0,0.0,0.0,0.0,4.0152517e-15,1.314811,17.920567,80.69313,167.61644,211.93742,227.24472,274.05978,322.417,274.28342,146.47595,86.68595,149.23286,276.37137,374.69678,365.86426,317.8325,327.98813,356.55573,335.24323,287.07977,336.69946,539.3865,838.13885,1094.1752,1122.2847,995.5517,904.06024,931.44476,1058.7086,1067.2191,918.625,821.7272,780.3557,723.3526,735.03656,779.5229,703.43915,531.0887,385.62012,318.9325,325.06686,371.1524,431.41367,514.3438,593.2988,612.1181,588.7344,559.0597,488.69946,371.8864,261.91614,188.28426,158.63824,159.04086,159.98303,146.78047,125.65236,102.6513,81.73138,64.841225,51.24659,38.29462,26.346035,16.900387,8.249179,2.1946902,0.26514825,0.008482411,0.027115222,0.20473097,0.63891095,0.9753813,0.9729794,0.6716955,0.6769112,0.7672006,0.9162704,1.706816,2.4165561,1.7928754,0.5906436,0.06891799,6.8728393e-15,0.0,0.0,0.0,0.0,0.0,0.0,0.0,0.0,0.0,0.0,0.0,0.0,0.0,0.0,0.0,0.0,0.0,0.0,0.0,0.0,0.0,0.0,0.0,0.0,0.0,0.0,0.0,0.0,0.0,0.0,0.0,0.0,0.0,0.0,0.0,0.0,0.0,0.0,0.0,0.0,0.0,0.0,0.0,0.0,0.0,0.0,0.0,0.0,0.0,0.0,0.0,0.0,0.0,0.0,0.0,0.0,0.0,0.0
393.5728,385.18362,376.45776,367.51724,357.92526,348.34604,339.19302,330.8307,323.28195,315.26233,306.36844,297.60544,290.28122,283.84888,278.17697,273.65036,269.99792,265.64255,260.6595,257.4128,253.52167,247.26866,240.55067,233.73842,227.1497,222.09805,217.74918,213.31717,208.75356,204.68814,201.23615,197.88234,194.601,191.46094,188.87764,186.51804,185.754,186.3558,186.9748,187.29024,188.0035,189.77449,191.91519,193.3059,193.85124,193.05542,189.8265,184.52379,177.6232,169.66418,161.06279,152.42421,144.62811,138.00931,131.29494,123.34637,116.8563,112.45188,108.160255,106.68591,110.160355,119.475075,129.30765,128.89362,120.71496,114.72606,114.41442,120.83998,134.95609,152.66364,168.1516,181.7613,194.62852,202.60968,202.74733,199.73035,204.81064,226.54192,257.44894,278.16864,282.35953,272.25317,256.83942,246.515,245.17091,250.56844,260.70056,278.0676,288.5688,283.62405,275.75607,273.9775,279.373,284.45792,275.51086,263.8586,279.4786,317.69272,353.46292,391.4074,445.7558,489.8047,489.1699,475.83984,491.5681,575.7822,685.86194,686.18945,563.8116,446.17078,380.20898,343.09985,336.2587,323.34375,308.18283,316.70367,350.94708,401.39307,443.11084,471.61655,505.3742,576.9091,696.28156,815.7373,854.42,812.30994,750.36725,696.9752,652.1321,613.2034,578.3171,549.4856,529.2443,520.3227,519.337,526.13434,552.4443,600.93036,644.34283,637.32336,615.77185,634.7523,675.58307,696.75507,716.79596,748.80194,784.467,789.36926,733.6888,635.3344,540.3326,458.34396,393.04572,360.84735,360.77872,380.31427,421.1898,467.41327,520.7761,590.60004,638.3146,664.45386,712.57855,764.7987,782.33746,754.05286,710.3059,700.5625,745.4232,802.7615,844.4646,860.6592,841.32666,794.3121,753.25055,727.7325,685.1753,632.93713,595.90173,589.0083,593.6708,555.7047,476.3291,399.97507,324.75662,244.10687,172.84169,108.38459,51.45483,23.698889,31.556744,54.612,71.25746,65.0416,45.299953,36.30424,40.66178,55.627506,77.92599,113.62537,180.82626,263.96472,353.34366,451.1133,520.91174,563.4309,614.47687,626.4867,572.9248,514.0335,480.6638,471.81448,457.42227,401.8023,370.27267,421.77942,547.5607,713.34106,844.15283,851.32263,728.51935,552.78455,425.0557,394.14532,419.52527,459.0602,505.34064,535.3507,542.66064,509.87494,434.83508,336.56604,243.16371,200.34799,179.39908,143.44092,113.70025,88.67733,63.26361,34.95137,12.932834,4.159793,0.9425964,0.095805645,4.439627e-14,2.1729519e-15,3.4566752e-27,0.0,0.0,0.0,0.0,0.0,0.0,0.0,0.0,0.0,0.0,0.0,0.0,0.0,0.0,0.0,0.0,0.0,0.0,0.0,0.0,0.0,0.0,0.0,0.0,0.0,0.0,0.0,0.0,0.0,0.0,0.0,0.0,0.0,0.0,0.0,0.0,0.0,0.0,0.0,0.0,0.0,0.0,0.0,0.0,0.0,0.0,0.0,0.0,0.0,0.0,0.0,0.0,0.0,0.0,0.0,0.0,0.0,0.0,0.0,0.0,0.0,0.0,0.0,0.0,0.0,0.0,0.0,0.0,0.0,0.0,0.0,0.0,0.0,0.0,0.0,0.0,0.0,0.2063619,1.8306597,6.926004,14.805802,16.968462,10.23323,3.1888108,0.47203636,0.022925062,7.4350037e-06,0.0,0.0,0.0,0.0,0.0,0.0,0.10542121,5.6465464,35.675453,87.78381,127.77366,150.603,178.26619,190.11671,145.66772,82.56068,92.96337,202.49068,356.09735,456.33472,446.9048,416.59723,432.62042,401.68402,310.25092,266.47784,357.62457,625.5552,979.38763,1160.5979,1043.7902,837.8033,753.5021,799.98193,952.16565,1038.6427,929.0727,778.2476,680.0446,607.3773,598.1519,614.63806,550.08594,423.2023,326.5947,298.75702,321.20242,365.74655,435.815,551.60126,655.37006,651.4779,572.57294,500.37073,415.53925,309.93768,221.67986,159.62653,122.61926,111.364426,117.01871,118.62166,108.31086,91.90961,75.86737,62.065987,50.002514,38.12832,26.534693,16.435978,7.711398,2.0728366,0.3032681,0.08130905,0.50050414,2.0306191,4.7740498,6.7747545,5.7553744,2.8634825,1.2024539,0.9477948,1.029585,1.0661918,0.84046775,0.4088112,0.10347928,0.010078457,2.1748974e-16,0.0,0.0,0.0,0.0,0.0,0.0,0.0,0.0,0.0,0.0,0.0,0.0,0.0,0.0,0.0,0.0,0.0,0.0,0.0,0.0,0.0,0.0,0.0,0.0,0.0,0.0,0.0,0.0,0.0,0.0,0.0,0.0,0.0,0.0,0.0,0.0,0.0,0.0,0.0,0.0,0.0,0.0,0.0,0.0,0.0,0.0,0.0,0.0,0.0,0.0,0.0,0.0,0.0,0.0,0.0,0.0,0.0,0.0
397.46115,388.89288,379.24527,369.04233,358.9684,349.17798,339.85672,331.5339,323.85107,315.90268,307.38715,300.15573,294.7031,289.3709,284.2404,279.25906,274.26517,268.43298,263.17673,259.68265,255.61647,250.18648,244.77821,239.07286,232.61844,227.09093,222.74232,218.66302,214.37193,210.2845,206.63025,203.62682,200.73596,197.79027,195.23694,193.06992,192.61485,192.9746,193.3549,193.56035,193.11671,192.7533,193.18756,193.7222,193.43321,191.9076,188.34724,182.43109,174.6704,166.29495,157.2441,148.87592,142.43991,136.96895,130.50635,122.245346,115.67468,110.62824,105.87368,105.31148,111.50395,123.2094,131.22375,125.10284,113.730255,107.681145,110.297386,121.38158,138.64302,155.18748,167.0604,177.62064,190.87788,206.25424,217.16306,217.71611,217.49626,231.84697,252.14633,256.75406,252.44456,249.68275,251.08444,254.28276,257.80814,262.28854,269.96457,282.29367,291.75906,291.49475,293.76868,301.65833,310.69928,314.9614,305.67838,286.64444,287.5055,319.49536,361.53232,405.28915,467.16074,512.5248,504.80896,510.71017,538.3751,574.0058,595.11475,559.95984,497.4897,437.12827,396.01883,377.20117,368.4494,346.89627,326.31378,332.99066,360.35422,390.87106,412.0992,438.5146,513.11206,647.9283,796.2681,892.3926,896.25305,842.5542,784.01996,718.9252,654.0038,603.5395,566.4742,540.5459,529.5774,531.9687,535.8451,538.8919,549.8225,569.39056,584.878,588.4668,606.2172,648.72034,673.3965,671.1486,683.67816,721.5739,759.3198,768.16113,729.6874,647.876,561.6738,485.66873,413.06348,359.74994,344.55115,349.4597,378.9285,444.90204,519.04407,582.01984,620.12964,657.14856,704.8348,742.0053,774.6526,781.40375,755.08044,739.77014,755.12,777.83563,790.55286,786.9944,767.22797,712.36194,664.0606,639.33124,599.9793,541.6153,493.4486,492.04535,517.5198,486.36777,390.63083,313.58337,263.62497,203.6962,148.30136,100.30047,51.646317,22.258995,22.784847,30.284832,31.138796,35.656662,52.58592,66.698105,54.331085,43.19346,65.33011,102.590065,144.94601,190.56786,248.76012,322.45947,384.47586,446.89694,512.8651,500.05737,417.6663,360.3168,341.49316,350.018,365.3322,349.0199,345.60443,419.23938,552.9463,722.66,878.69324,911.027,772.1131,551.92084,403.0785,382.6027,395.112,387.69995,379.323,357.56982,353.99268,380.6828,388.3598,318.09476,206.31068,149.3119,134.54044,118.18644,84.82207,43.80885,19.302853,6.9841957,1.4997778,0.18148018,0.0091909235,5.832058e-16,3.0556279e-27,0.0,0.0,0.0,0.0,0.0,0.0,0.0,0.0,0.0,0.0,0.0,0.0,0.0,0.0,0.0,0.0,0.0,0.0,0.0,0.0,0.0,0.0,0.0,0.0,0.0,0.0,0.0,0.0,0.0,0.0,0.0,0.0,0.0,0.0,0.0,0.0,0.0,0.0,0.0,0.0,0.0,0.0,0.0,0.0,0.0,0.0,0.0,0.0,0.0,0.0,0.0,0.0,0.0,0.0,0.0,0.0,0.0,0.0,0.0,0.0,0.0,0.0,0.0,0.0,0.0,0.0,0.0,0.0,0.0,0.0,0.0,0.0,0.0,0.0,0.0,0.0,0.0,0.0,0.0,2.2110765,18.326008,60.00385,107.71862,110.63647,66.07194,23.93729,5.7721167,1.133778,0.20659935,0.10202853,0.23636775,0.25542217,0.11294828,0.016233345,0.00017671526,0.0282802,2.457541,18.34343,54.95113,92.33255,104.38275,95.18296,77.12983,53.446075,49.738037,108.90917,238.26031,386.1654,472.68912,482.04895,505.28207,553.77905,495.6467,345.47632,288.17926,382.24817,620.58264,913.6096,1021.2277,913.5983,769.37305,696.0676,719.5685,843.64166,972.3595,942.7201,785.3226,627.3288,515.33966,458.41672,433.73935,382.7238,305.5702,263.4883,274.91562,311.55298,361.70578,437.60455,541.4135,612.6653,581.2531,484.46628,393.6487,308.6024,228.36923,167.96552,122.58345,92.14732,81.74614,88.97891,97.62375,94.15054,81.847275,69.236015,57.860966,46.656017,35.83423,26.24119,17.073471,8.547069,3.1016016,1.1520516,1.216653,3.32213,7.329456,11.082354,11.511319,7.862601,3.2870965,0.8857407,0.51393884,0.58068925,0.44574583,0.2014471,0.046658274,0.004732406,0.00023187207,1.9317742e-16,0.0,0.0,0.0,0.0,0.0,0.0,0.0,0.0,0.0,0.0,0.0,0.0,0.0,0.0,0.0,0.0,0.0,0.0,0.0,0.0,0.0,0.0,0.0,0.0,0.0,0.0,0.0,0.0,0.0,0.0,0.0,0.0,0.0,0.0,0.0,0.0,0.0,0.0,0.0,0.0,0.0,0.0,0.0,0.0,0.0,0.0,0.0,0.0,0.0,0.0,0.0,0.0,0.0,0.0,0.0,0.0,0.0,0.0
400.48367,392.2839,381.9616,370.8851,360.75525,351.31415,341.68213,332.86142,325.40976,318.4774,311.44977,305.9212,300.62466,294.90103,289.61447,284.29498,278.17603,271.77985,266.1831,261.53894,256.8353,252.59595,249.63263,246.07532,240.6519,234.93817,230.32057,226.16435,221.94298,217.91058,214.70767,212.36086,209.73279,206.71117,203.77693,201.62157,200.77849,200.86208,201.62189,202.01408,200.11938,196.3422,192.79962,191.03387,189.47119,186.97124,182.9866,176.74493,168.99153,160.55174,151.92911,144.87079,139.54887,134.57924,128.45442,120.987656,113.602486,107.167946,102.992836,103.85658,111.31636,121.10821,124.33406,118.46593,110.13191,104.99679,107.6195,120.94926,140.61076,157.76588,169.03386,178.8925,192.37825,216.3446,239.56349,244.40453,236.08627,233.21176,234.78854,236.51678,240.91357,249.777,260.6911,271.06735,278.05304,279.3813,282.1987,295.30627,311.39368,315.15305,312.77942,316.47086,320.43582,322.41284,321.46164,307.80432,296.8221,320.21622,365.48474,412.39203,476.90558,505.68198,480.64792,483.04047,508.63965,510.67535,481.87024,464.65512,466.6852,451.17343,422.7069,399.48578,378.3395,349.36227,328.94315,337.55756,364.98904,394.78687,432.83344,498.67892,600.99854,734.55493,864.5041,934.5922,932.9295,881.17255,810.10144,730.3753,659.3182,599.1077,559.1914,542.7172,545.60767,555.99744,560.3972,554.309,550.3177,556.9031,567.6493,581.5107,606.8278,631.3526,629.7852,608.2035,619.3347,662.4964,688.3036,686.6848,666.0506,624.44226,555.5952,467.66843,386.62527,331.4309,326.02756,350.6672,366.97668,403.88748,482.61566,556.2931,613.30176,660.4395,685.8471,716.0782,763.14294,788.98236,795.43695,807.0093,805.84875,778.09235,736.67566,700.1999,676.29535,653.385,611.589,556.2988,497.1305,441.5152,397.24664,392.03653,411.1373,380.67072,300.46097,241.95015,207.53987,165.78546,126.14029,85.7408,43.67426,15.321211,8.473233,8.967301,15.994838,41.10481,88.41974,109.92476,72.00289,39.83494,59.207375,87.40578,114.14601,158.82509,225.84152,320.98593,415.1509,481.4396,488.79044,423.2398,352.88324,313.03476,281.44623,269.5234,279.90143,294.0928,344.08533,451.98322,578.3652,694.6109,805.83655,854.2936,744.04004,523.9937,399.73697,426.99258,440.66687,386.5624,317.4191,247.14278,207.4842,229.4536,281.5601,271.36728,188.51259,114.74324,80.37493,64.00954,43.41072,18.524136,4.711658,0.7624021,0.07032652,0.0018422782,0.0,0.0,0.0,0.0,0.0,0.0,0.0,0.0,0.0,0.0,0.0,0.0,0.0,0.0,0.0,0.0,0.0,0.0,0.0,0.0,0.0,0.0,0.0,0.0,0.0,0.0,0.0,0.0,0.0,0.0,0.0,0.0,0.0,0.0,0.0,0.0,0.0,0.0,0.0,0.0,0.0,0.0,0.0,0.0,0.0,0.0,0.0,0.0,0.0,0.0,0.0,0.0,0.0,0.0,0.0,0.0,0.0,0.0,0.0,0.0,0.0,0.0,0.0,0.0,0.0,0.0,0.0,0.0,0.0,0.0,0.0,0.0,0.0,0.0,0.0,0.0,0.0,0.0,0.0,0.0,0.0,0.0,8.885923,68.48869,200.63008,323.05215,312.7915,192.9172,88.00535,36.419983,13.168007,3.7933934,3.0220556,4.929763,4.3771634,1.7935476,0.26796773,0.012755866,0.14719476,2.427023,15.29742,45.297974,74.25226,73.18449,47.44194,26.651722,24.290934,52.188534,129.85577,247.60864,365.98453,447.54523,504.72162,598.5581,686.2595,604.66296,409.3014,337.35928,398.6739,547.8721,743.7066,820.22375,771.8499,698.2261,645.8526,667.19434,750.2977,848.7142,855.4319,714.51245,539.128,425.72495,368.2857,338.411,294.84668,238.32317,221.91476,252.61656,306.90182,369.732,431.22504,485.7214,498.3445,439.7917,349.988,273.02942,209.12914,158.82149,122.655426,91.69812,68.23392,61.296196,69.6016,78.32647,76.91925,70.246315,63.267265,54.18065,42.97682,32.858227,24.915186,18.169497,13.211109,9.71735,7.599034,7.839526,10.369785,12.029285,10.364568,6.9406223,3.3456116,0.9890845,0.1754681,0.093827195,0.1232532,0.076837674,0.023076234,0.0030034662,0.000163222,2.9195999e-05,4.0731455e-17,0.0,0.0,0.0,0.0,0.0,0.0,0.0,0.0,0.0,0.0,0.0,0.0,0.0,0.0,0.0,0.0,0.0,0.0,0.0,0.0,0.0,0.0,0.0,0.0,0.0,0.0,0.0,0.0,0.0,0.0,0.0,0.0,0.0,0.0,0.0,0.0,0.0,0.0,0.0,0.0,0.0,0.0,0.0,0.0,0.0,0.0,0.0,0.0,0.0,0.0,0.0,0.0,0.0,0.0,0.0,0.0,0.0,0.0
405.42786,398.01492,386.715,374.78455,365.20685,355.8728,345.5503,336.06088,329.35672,324.56287,319.5788,313.618,306.4695,299.21042,292.98245,287.64603,282.15283,276.1088,270.24527,265.2154,260.49545,257.44595,256.67432,254.2779,249.46776,244.60443,239.91296,235.26753,230.52478,226.64267,223.90492,221.63931,218.72095,215.31223,212.09354,209.43608,208.15672,208.8704,210.28047,210.50552,207.44931,201.70058,196.04535,191.90843,187.57745,182.83594,177.15575,170.05583,162.26457,153.87389,146.42972,141.31625,137.42061,132.75444,126.966194,119.83707,111.40358,103.53727,100.08491,102.99889,110.50749,116.125946,115.57345,113.33412,107.93206,98.29448,95.555145,111.48398,138.34341,157.10283,170.2268,184.95381,206.41725,237.70337,267.082,273.5388,254.95511,234.9814,228.7453,235.94472,250.04335,266.22314,279.9384,292.64816,303.56784,304.38358,299.16223,305.118,323.60675,336.27014,336.53705,332.82022,325.27347,320.80643,325.61884,319.756,305.5184,319.39993,360.25412,423.17972,486.59244,498.67783,464.84518,438.0115,435.6301,428.3393,403.68353,403.59048,419.46875,414.18475,391.89267,368.8053,344.73874,333.77808,343.17606,373.46512,415.11798,457.44128,507.0116,574.3846,647.2968,739.4369,833.91394,901.40515,917.2846,857.2033,761.2961,688.6767,637.06226,591.7415,564.7072,562.62317,572.91254,584.02954,586.48804,577.4893,569.11914,570.5441,570.70526,563.661,564.5568,577.86273,578.0215,562.17126,585.29474,637.9315,640.8718,624.93085,632.58453,612.869,533.4017,432.34012,358.7668,315.71857,331.40286,383.6994,377.81085,386.4129,465.30225,546.00244,604.9051,633.7571,650.4016,701.70306,753.6061,759.4528,770.943,832.7121,881.9973,866.0026,814.767,766.3506,729.49097,692.887,624.4825,519.2165,418.19666,353.71933,327.43015,330.15634,329.624,290.24783,232.67067,200.55952,175.8759,146.53223,111.76899,62.881683,24.773203,6.452853,3.7252774,15.069248,39.60763,68.31605,96.34556,95.66498,55.532104,29.67277,45.583904,66.20696,86.59758,141.11456,243.33131,385.76196,507.6238,543.0575,486.51648,399.4389,353.34927,325.80197,271.3697,223.33339,222.29234,274.42477,374.53738,505.06317,632.92847,721.7567,766.36346,752.37164,620.1181,437.42953,395.95328,485.76013,518.74304,453.951,363.50055,262.09674,174.7586,143.64961,176.98352,208.4361,167.56819,89.65737,42.589664,21.394331,10.9075165,4.082917,0.8255579,0.068562396,0.00013160906,0.0,0.0,0.0,0.0,0.0,0.0,0.0,0.0,0.0,0.0,0.0,0.0,0.0,0.0,0.0,0.0,0.0,0.0,0.0,0.0,0.0,0.0,0.0,0.0,0.0,0.0,0.0,0.0,0.0,0.0,0.0,0.0,0.0,0.0,0.0,0.0,0.0,0.0,0.0,0.0,0.0,0.0,0.0,0.0,0.0,0.0,0.0,0.0,0.0,0.0,0.0,0.0,0.0,0.0,0.0,0.0,0.0,0.0,0.0,0.0,0.0,0.0,0.0,0.0,0.0,0.0,0.0,0.0,0.0,0.0,0.0,0.0,0.0,0.0,0.0,0.0,0.0,0.0,0.0,0.0,0.0,0.0,0.0,14.983426,112.78621,313.3946,473.0548,457.43958,319.10568,200.8875,125.330765,59.146423,24.73838,28.236052,38.298847,30.861935,15.00603,5.2045064,1.644878,0.82475424,2.8109667,12.319888,30.566038,44.68262,40.412464,24.518444,16.010864,24.806555,61.478867,138.55992,237.41951,322.66296,402.32938,516.5455,667.59503,777.182,670.9026,446.3627,368.988,405.7129,494.25848,620.5501,686.65314,662.273,596.74884,542.1263,554.9563,602.8662,654.9613,646.17194,528.1709,399.798,334.06622,309.3223,286.27905,240.4676,197.68251,203.7843,256.73096,326.80814,374.71362,394.36685,411.42715,399.12396,327.64764,242.41766,182.06096,138.07831,105.3731,82.58542,62.396904,48.323154,48.535717,57.45237,60.66429,56.12146,53.32546,53.210747,49.45664,40.71976,32.12319,26.314724,24.080803,25.413443,25.496176,23.001734,20.754335,17.468416,11.002132,4.381515,1.3687916,0.40389845,0.075412735,0.0057322555,0.00082025124,0.005347399,0.0033715202,0.0005771436,5.453959e-16,2.3237975e-17,9.657155e-30,3.3285633e-30,0.0,0.0,0.0,0.0,0.0,0.0,0.0,0.0,0.0,0.0,0.0,0.0,0.0,0.0,0.0,0.0,0.0,0.0,0.0,0.0,0.0,0.0,0.0,0.0,0.0,0.0,0.0,0.0,0.0,0.0,0.0,0.0,0.0,0.0,0.0,0.0,0.0,0.0,0.0,0.0,0.0,0.0,0.0,0.0,0.0,0.0,0.0,0.0,0.0,0.0,0.0,0.0,0.0,0.0,0.0,0.0,0.0,0.0
412.65033,404.4497,392.37442,380.20966,370.06198,360.1079,349.5618,340.4304,335.7684,333.45187,329.17978,321.28787,311.84564,303.09912,296.22314,290.63617,285.45868,279.77127,273.82297,268.46448,264.86792,263.92645,264.6637,263.80667,260.34326,255.98018,251.35559,246.57178,241.79077,237.55695,234.17354,231.14993,227.7163,224.00014,220.31134,216.5733,214.03,213.85075,214.74466,214.53484,211.27669,205.90811,201.07504,196.00938,189.7241,183.00995,175.76947,167.51282,158.69348,150.12753,143.00603,137.99706,134.1328,129.38927,123.48915,116.3328,107.641975,99.51546,97.00446,101.75968,109.05884,111.61159,113.784294,118.31994,112.27278,95.48927,88.69748,107.919044,135.94931,154.35579,169.06084,190.47754,223.28337,262.2344,293.4346,295.1219,265.52338,236.10896,231.61157,242.98447,261.82733,284.2132,300.93216,310.1317,321.48224,326.68314,322.17432,314.86115,316.75195,333.14404,345.0948,342.0678,332.49265,327.56613,329.04807,328.09793,324.8261,333.19968,365.1374,434.3928,495.87155,502.6803,480.43195,450.4055,421.14145,395.50284,375.8341,371.43427,368.12485,358.55557,356.55936,355.89355,346.65515,351.0596,378.3196,417.09653,456.51532,500.65674,552.46985,604.1541,661.19025,730.0069,788.03033,835.55865,841.23236,778.313,700.2428,645.3722,615.0019,599.0369,596.9404,609.89795,625.34406,631.2224,624.42267,613.50494,603.01245,596.7273,585.178,555.431,531.7524,533.89624,541.3521,537.53656,575.4473,632.4556,613.63635,589.0381,613.7486,599.79065,517.1399,436.4031,386.1101,348.39218,333.1069,347.8951,345.3725,373.2684,466.73828,560.1452,616.2884,628.1438,620.8325,645.5371,679.10706,660.55414,649.45123,732.7678,853.49744,913.6504,913.30066,883.65076,831.59326,761.40137,642.14197,495.21454,376.4852,320.39798,337.63562,374.6983,359.60574,297.655,232.03964,189.13232,157.78772,126.5471,84.08826,37.858387,12.931663,4.3650126,13.511558,48.796974,85.33678,84.77102,64.18967,43.07935,21.060211,13.214903,28.09218,54.629326,86.118996,135.12404,220.37234,344.0014,452.22723,483.66983,447.12787,405.0871,382.5101,339.48175,260.99316,198.73582,211.27473,318.59616,472.5227,613.5607,729.33435,801.9314,782.5734,643.5102,443.09332,329.91708,382.68674,524.0309,616.62305,596.80896,486.32352,342.99796,221.06569,145.60774,126.95052,130.1068,99.80338,45.24459,15.364217,4.604504,1.2402363,0.27358696,0.031631287,3.2324854e-14,1.0632624e-26,0.0,0.0,0.0,0.0,0.0,0.0,0.0,0.0,0.0,0.0,0.0,0.0,0.0,0.0,0.0,0.0,0.0,0.0,0.0,0.0,0.0,0.0,0.0,0.0,0.0,0.0,0.0,0.0,0.0,0.0,0.0,0.0,0.0,0.0,0.0,0.0,0.0,0.0,0.0,0.0,0.0,0.0,0.0,0.0,0.0,0.0,0.0,0.0,0.0,0.0,0.0,0.0,0.0,0.0,0.0,0.0,0.0,0.0,0.0,0.0,0.0,0.0,0.0,0.0,0.0,0.0,0.0,0.0,0.0,0.0,0.0,0.0,0.0,0.0,0.0,0.0,0.0,0.0,0.0,0.0,0.0,0.0,0.0,10.779182,86.88107,257.04968,399.0404,428.03326,377.9246,318.78784,239.01158,130.87906,84.073044,116.77366,149.93118,131.13414,88.8685,52.53835,26.014568,10.506175,5.360167,8.157488,14.932148,19.228933,17.648151,13.747179,15.472488,32.05798,74.92081,151.54688,245.74617,325.80923,401.53238,517.80695,672.97174,784.0785,687.9801,482.3717,406.8656,427.28003,479.63455,555.27484,607.6833,591.6073,504.07947,419.1551,410.08676,426.8245,435.34305,408.86545,336.28906,277.3337,258.8554,257.66452,238.56049,195.99883,169.05243,197.42743,274.30402,350.41022,367.48236,347.48984,339.92993,312.95905,243.24495,175.06049,131.85445,97.39101,69.40428,51.393578,39.18835,35.879948,44.37129,53.995678,52.67181,44.04993,40.18328,43.18977,45.63318,43.07459,39.07592,36.16836,35.0056,34.124607,30.96038,26.545473,21.964928,15.591729,7.0557137,1.4447056,0.09327222,8.0742006e-14,1.8277014e-14,5.4395053e-16,5.567522e-18,2.909645e-17,1.8655328e-16,3.9816646e-17,0.0,0.0,0.0,0.0,0.0,0.0,0.0,0.0,0.0,0.0,0.0,0.0,0.0,0.0,0.0,0.0,0.0,0.0,0.0,0.0,0.0,0.0,0.0,0.0,0.0,0.0,0.0,0.0,0.0,0.0,0.0,0.0,0.0,0.0,0.0,0.0,0.0,0.0,0.0,0.0,0.0,0.0,0.0,0.0,0.0,0.0,0.0,0.0,0.0,0.0,0.0,0.0,0.0,0.0,0.0,0.0,0.0,0.0,0.0,0.0,0.0,0.0
418.6043,409.1962,397.23218,385.07837,373.58383,362.07733,351.35333,345.354,344.50095,343.2052,337.31805,327.81808,316.9994,307.84933,301.03113,295.27408,289.65186,283.86594,277.76736,272.357,270.06082,270.81866,272.4501,272.44046,269.91257,266.21048,262.07257,257.5068,252.894,248.40656,244.12062,240.38496,236.88498,232.9818,228.79318,224.40674,220.82478,219.11485,218.80087,217.92082,214.71779,209.54597,204.92548,199.88657,193.27014,185.40096,176.59734,167.15024,158.02388,149.81621,142.89049,136.98479,131.49435,126.15781,119.941216,111.90046,102.31963,94.88437,93.935,100.24163,105.985245,108.81967,116.88162,124.61026,121.16574,108.07887,102.924324,117.882645,139.91585,155.9161,172.13823,198.58992,237.52165,280.4041,309.75446,305.7337,273.33618,244.00049,236.21983,245.39647,264.9701,290.70648,313.76584,327.13235,336.0412,342.6136,346.99622,337.6177,325.74683,332.0261,342.30084,342.8681,343.56564,352.31482,359.35294,356.641,356.73712,364.65613,380.41727,415.4998,457.593,483.0945,497.2709,495.51755,459.30362,409.7165,390.4544,379.5133,347.28574,324.27985,334.37515,346.2574,347.75272,364.8962,400.38922,443.636,482.54205,527.0537,596.29706,670.9352,729.6264,755.6055,760.7446,774.3411,768.5432,724.65076,678.8977,649.73346,639.6311,649.1088,672.9197,702.9996,721.1467,708.32263,680.5984,662.4981,652.09076,639.9018,621.51605,587.55273,544.9186,518.9449,506.7224,501.6209,553.57336,621.3639,610.3161,594.0171,605.5886,578.32605,514.42346,457.43448,419.72876,396.35004,363.0394,326.9616,312.48077,350.7588,440.02298,526.82745,583.53534,593.3095,548.7996,512.88617,517.82684,512.2035,508.17075,581.20264,703.00433,777.68555,800.33374,790.7794,773.15546,731.16534,605.29236,441.87384,339.24515,329.13293,404.85287,464.28232,387.1457,285.62936,238.1656,217.05304,185.69923,124.730354,58.037502,19.670444,6.5335646,4.8963203,23.276056,65.52015,87.8275,62.734203,27.732508,9.789124,4.2376146,8.982238,30.530756,73.67272,127.213486,184.53229,267.23138,371.68475,455.21982,481.94974,473.5769,481.3156,468.67056,367.37143,235.56369,182.86427,255.90533,435.19427,625.19476,748.1348,801.62164,797.49664,721.5422,531.1635,334.42465,306.83127,406.4449,535.5303,643.387,632.1776,475.12234,314.57196,218.06104,151.84395,103.11846,63.53372,33.154667,11.12431,2.4128733,0.39825493,0.047719087,0.0020295377,0.0,0.0,0.0,0.0,0.0,0.0,0.0,0.0,0.0,0.0,0.0,0.0,0.0,0.0,0.0,0.0,0.0,0.0,0.0,0.0,0.0,0.0,0.0,0.0,0.0,0.0,0.0,0.0,0.0,0.0,0.0,0.0,0.0,0.0,0.0,0.0,0.0,0.0,0.0,0.0,0.0,0.0,0.0,0.0,0.0,0.0,0.0,0.0,0.0,0.0,0.0,0.0,0.0,0.0,0.0,0.0,0.0,0.0,0.0,0.0,0.0,0.0,0.0,0.0,0.0,0.0,0.0,0.0,0.0,0.0,0.0,0.0,0.0,0.0,0.0,0.0,0.0,0.0,0.0,0.0,0.0,0.0,0.0,0.0,0.0,0.0,3.1722624,31.482122,116.546776,228.32161,331.60056,392.00165,388.5253,302.62482,194.96722,179.21204,252.76411,324.8441,332.0781,291.7828,226.54564,144.0,67.748764,23.181482,9.177847,8.6837435,10.066646,10.191534,10.731663,17.557184,40.21494,91.35593,176.40909,282.34546,381.1947,453.36606,534.1727,674.9545,788.7832,701.8014,525.43274,474.33557,505.93927,536.60144,555.99023,567.58594,531.5626,420.55588,318.00043,298.8966,300.02686,285.49036,257.7679,221.40096,203.53525,207.71942,211.06065,190.94272,155.46747,143.40132,191.02138,288.24823,362.5433,350.55264,305.7643,281.2025,241.96443,181.698,134.20946,104.00415,73.988686,46.986523,30.801525,26.90551,34.31634,46.755367,55.270325,54.568134,46.50409,39.577484,39.638695,42.864838,43.429558,40.190823,34.061535,27.358711,21.125105,14.952614,10.978304,8.526257,6.196628,2.858835,0.5291104,0.019915232,1.0944557e-14,0.0,0.0,0.0,0.0,0.0,0.0,0.0,0.0,0.0,0.0,0.0,0.0,0.0,0.0,0.0,0.0,0.0,0.0,0.0,0.0,0.0,0.0,0.0,0.0,0.0,0.0,0.0,0.0,0.0,0.0,0.0,0.0,0.0,0.0,0.0,0.0,0.0,0.0,0.0,0.0,0.0,0.0,0.0,0.0,0.0,0.0,0.0,0.0,0.0,0.0,0.0,0.0,0.0,0.0,0.0,0.0,0.0,0.0,0.0,0.0,0.0,0.0,0.0,0.0,0.0,0.0,0.0,0.0
423.20935,413.48846,401.56024,389.23044,375.7678,362.41223,353.94122,353.95956,355.01514,351.0285,343.26266,333.47928,322.8073,313.75296,306.60373,300.4813,294.64,288.78024,282.79013,278.05222,276.91348,278.83438,280.59314,280.03787,277.39432,274.20026,270.61737,266.027,261.3385,256.80582,252.37242,249.07278,246.17242,242.2926,237.82884,233.54845,230.05963,227.80983,226.26746,224.63069,221.49457,216.27567,210.4446,204.46764,196.96216,187.50002,177.00569,167.04092,158.31822,150.75574,143.9948,137.11748,130.43573,125.32912,118.97189,109.62277,99.51903,93.44276,93.94284,99.29338,103.457405,108.28038,117.07166,124.43428,124.56491,119.19606,118.40344,127.72687,142.11417,156.2189,178.00291,213.68655,255.09319,292.81396,315.1079,306.26556,279.86353,257.42535,243.18228,246.5977,263.05365,285.1186,309.36072,333.29047,344.94678,349.9109,356.39612,355.12497,351.51392,354.86197,357.1513,355.60837,364.5366,388.93628,402.36212,392.59753,383.1481,387.02814,392.2477,401.28696,418.69507,438.55157,459.52994,477.71732,463.12604,425.37338,416.17838,400.32416,349.49426,314.8311,321.36304,332.59097,349.15015,388.94284,439.4274,486.96884,521.6743,558.4679,630.1201,728.1717,788.79297,771.5363,730.9208,724.2316,732.11975,727.1222,717.72296,712.8998,710.54126,724.43524,752.23315,776.08813,774.0837,751.0685,720.27203,704.52606,701.7129,690.9609,655.527,598.37897,548.6574,507.85992,471.1029,456.10468,497.95602,560.9141,596.4841,597.83057,581.1542,554.57587,519.04956,474.79596,427.225,399.87457,376.0746,333.655,301.8491,320.0207,370.50394,408.5532,442.6673,471.5777,441.7045,386.8525,381.79794,410.4342,440.7572,494.28778,558.66455,580.7785,573.9638,581.1244,621.0364,636.4703,537.87585,386.58334,318.42343,348.94736,415.24673,407.64102,291.2354,200.23305,188.7389,210.62451,194.71074,120.02164,44.635826,10.181595,2.7945101,5.8879232,19.261766,39.653576,42.780674,24.267445,7.207673,1.5689396,4.809352,21.423573,57.914288,110.96201,174.19185,266.55273,404.53787,535.3135,587.28467,553.3579,500.49936,511.66022,495.8257,342.05817,184.95058,162.96597,278.86053,483.3157,668.7735,760.4229,738.2203,643.3117,541.8479,395.87363,297.08093,372.12503,487.7859,560.4837,602.7335,530.94037,338.05365,189.81561,122.711205,80.29083,46.859764,20.016619,5.919434,1.1277449,0.115091555,0.004257042,2.4477471e-15,0.0,0.0,0.0,0.0,0.0,0.0,0.0,0.0,0.0,0.0,0.0,0.0,0.0,0.0,0.0,0.0,0.0,0.0,0.0,0.0,0.0,0.0,0.0,0.0,0.0,0.0,0.0,0.0,0.0,0.0,0.0,0.0,0.0,0.0,0.0,0.0,0.0,0.0,0.0,0.0,0.0,0.0,0.0,0.0,0.0,0.0,0.0,0.0,0.0,0.0,0.0,0.0,0.0,0.0,0.0,0.0,0.0,0.0,0.0,0.0,0.0,0.0,0.0,0.0,0.0,0.0,0.0,0.0,0.0,0.0,0.0,0.0,0.0,0.0,0.0,0.0,0.0,0.0,0.0,0.0,0.0,0.0,0.0,0.0,0.0,0.0,0.0,0.31523308,5.1020575,31.019743,102.53614,222.35355,335.84113,379.72476,318.58932,243.5551,259.73053,357.62805,482.933,566.7836,567.30334,494.30136,358.41196,192.7877,73.539734,25.032118,15.120384,14.393624,12.368902,11.858948,20.879768,44.860546,95.08284,186.86952,312.55627,427.42517,486.93005,541.9687,686.9854,814.6556,738.12897,581.1963,544.94855,589.0856,624.79016,623.8558,599.4274,519.86237,371.1684,255.29419,228.36557,224.2624,205.1035,180.8495,161.23082,161.4625,178.67201,178.14122,148.23466,123.37812,136.0099,200.67703,302.44525,359.88956,321.15253,257.7566,219.9637,184.82861,143.98276,107.057465,76.19578,49.605988,29.106762,18.098825,24.241297,42.943836,57.099415,60.393627,56.560417,47.239452,36.92132,32.716007,34.487972,34.34327,26.62851,15.475974,7.835767,4.450566,2.500668,1.4465722,0.9909263,0.8634483,0.50792354,0.10393243,0.0027782223,5.038528e-28,0.0,0.0,0.0,0.0,0.0,0.0,0.0,0.0,0.0,0.0,0.0,0.0,0.0,0.0,0.0,0.0,0.0,0.0,0.0,0.0,0.0,0.0,0.0,0.0,0.0,0.0,0.0,0.0,0.0,0.0,0.0,0.0,0.0,0.0,0.0,0.0,0.0,0.0,0.0,0.0,0.0,0.0,0.0,0.0,0.0,0.0,0.0,0.0,0.0,0.0,0.0,0.0,0.0,0.0,0.0,0.0,0.0,0.0,0.0,0.0,0.0,0.0,0.0,0.0,0.0,0.0,0.0,0.0
427.0915,417.96228,405.95917,392.2613,376.7072,364.95447,363.17145,365.5042,363.50336,356.88425,348.69305,339.3906,329.37027,320.40335,312.8518,306.4208,300.52524,294.78308,289.1861,285.35217,285.66504,288.72757,289.97336,288.39813,285.59845,282.54492,279.23657,274.95334,269.9874,264.8629,260.47955,257.5955,255.29326,251.83447,247.52348,243.34709,239.63397,236.11732,233.14278,230.79977,228.02458,223.35461,216.73239,209.34827,200.59024,189.19716,176.66745,166.01161,157.90334,151.39445,144.95972,137.7157,130.51593,124.17218,116.11045,105.68729,96.84792,93.5709,96.01566,100.39576,102.84485,106.61829,113.56332,119.01282,121.1713,121.95602,125.10615,132.15129,142.31432,157.67995,189.21797,236.52335,272.5359,295.04205,308.79593,308.04114,294.88196,273.61746,256.34125,254.06221,264.59125,285.50928,310.5481,331.74518,340.78983,342.50272,349.7978,363.1424,375.84784,381.76187,377.18692,368.66513,376.1383,406.44055,420.41418,401.17773,377.72522,373.5727,378.23135,388.7453,402.01755,410.56396,406.008,407.70554,405.03458,395.24976,392.7823,380.3872,344.84192,316.11316,319.32098,335.95242,364.1911,416.76553,467.6619,492.91757,508.66425,540.26965,610.1276,720.91034,798.249,776.4757,711.13306,686.0333,707.4131,737.4079,762.8904,781.92633,781.4622,780.43616,777.60986,756.55774,736.1313,725.93304,716.2114,710.9303,710.7047,704.3505,659.05646,589.5876,539.0162,506.5354,473.86484,446.79166,450.90546,486.61716,538.95447,552.7204,518.9785,489.22037,478.68222,457.29135,412.0409,364.19922,332.789,302.18262,272.8539,272.40356,287.94174,278.48273,279.776,324.68912,329.67703,299.75482,316.91464,366.04825,399.16034,413.0809,410.86578,407.64053,400.9403,404.1315,481.82596,532.39557,464.74612,351.2431,308.52487,334.89252,346.08374,294.66367,204.48064,144.15129,130.67667,140.20224,125.05793,71.50007,23.047846,4.9267015,7.5574245,15.465134,18.375309,15.687039,10.20515,4.287583,0.86672366,1.1327438,10.208171,40.217186,94.25045,158.93155,229.75471,326.81293,464.8952,568.40906,555.73206,458.94336,368.02798,364.80945,352.393,232.12592,136.63315,166.30441,304.0734,485.00766,615.68964,639.6729,554.9422,432.30136,347.43948,277.39575,296.70633,434.50934,541.36786,562.7084,520.46564,386.0702,203.67946,84.75118,37.42961,17.137674,7.2211294,2.3422334,0.43658113,0.03096465,2.1031605e-05,2.9169139e-16,0.0,0.0,0.0,0.0,0.0,0.0,0.0,0.0,0.0,0.0,0.0,0.0,0.0,0.0,0.0,0.0,0.0,0.0,0.0,0.0,0.0,0.0,0.0,0.0,0.0,0.0,0.0,0.0,0.0,0.0,0.0,0.0,0.0,0.0,0.0,0.0,0.0,0.0,0.0,0.0,0.0,0.0,0.0,0.0,0.0,0.0,0.0,0.0,0.0,0.0,0.0,0.0,0.0,0.0,0.0,0.0,0.0,0.0,0.0,0.0,0.0,0.0,0.0,0.0,0.0,0.0,0.0,0.0,0.0,0.0,0.0,0.0,0.0,0.0,0.0,0.0,0.0,0.0,0.0,0.0,0.0,0.0,0.0,0.0,0.0,0.0,0.0,0.0,0.0030023984,0.3621322,5.7985907,33.552677,98.761314,189.80717,269.6452,287.06427,278.77823,320.48328,437.70187,605.49725,732.69946,736.56445,651.5045,510.10165,318.4251,153.45874,66.90125,38.6645,29.771221,20.280836,14.927944,24.974663,46.714336,83.70713,164.53088,287.96387,395.79962,444.81833,490.93225,616.4976,735.041,700.77026,593.9356,565.9629,609.86475,668.6338,706.89075,711.3881,623.31274,418.458,244.39812,186.34251,177.41788,161.3623,136.48878,121.69537,131.8189,159.1804,157.09512,119.32884,110.660934,145.77731,210.8914,302.53296,337.09476,277.01404,207.31827,164.3949,136.4773,112.137276,82.62867,52.232613,28.57598,15.123605,12.464604,27.62105,53.473885,67.57838,63.16877,49.63388,34.301273,23.183676,20.998081,24.14724,22.749062,13.922347,5.1141057,1.1963286,0.22106077,0.07215151,0.040412296,0.01932105,0.030074697,0.028837487,0.006666756,3.6818293e-16,2.3289366e-28,0.0,0.0,0.0,0.0,0.0,0.0,0.0,0.0,0.0,0.0,0.0,0.0,0.0,0.0,0.0,0.0,0.0,0.0,0.0,0.0,0.0,0.0,0.0,0.0,0.0,0.0,0.0,0.0,0.0,0.0,0.0,0.0,0.0,0.0,0.0,0.0,0.0,0.0,0.0,0.0,0.0,0.0,0.0,0.0,0.0,0.0,0.0,0.0,0.0,0.0,0.0,0.0,0.0,0.0,0.0,0.0,0.0,0.0,0.0,0.0,0.0,0.0,0.0,0.0,0.0,0.0,0.0,0.0
433.03452,420.87732,407.8022,393.65683,380.61572,374.5079,375.34665,374.5784,369.05365,361.245,353.53714,345.14554,335.9437,327.6447,320.4449,314.14484,308.22064,302.63278,297.44174,294.63733,296.33258,299.67984,300.4905,298.6715,296.01886,293.0077,289.79028,285.7542,280.6335,275.2083,270.43945,266.76654,263.9893,260.78574,256.74426,252.37402,247.82388,242.99866,239.14078,236.38757,233.38489,228.07625,220.08556,211.37413,202.11357,190.11794,175.83783,163.76207,155.87355,150.61484,145.22565,138.06363,129.82867,121.009575,110.28153,98.87381,92.69824,93.84315,99.262924,103.52985,102.25779,102.41643,108.08741,113.30103,118.5241,125.56978,133.2535,140.36813,151.27681,172.16977,211.92993,255.57503,273.70364,283.96298,303.52383,322.3366,319.57236,291.5711,268.84125,262.9176,269.59073,288.5585,311.45892,326.68103,331.17953,331.80725,342.70532,364.202,380.6638,386.52576,378.84756,365.49976,365.0306,383.23483,389.66425,369.31934,347.55658,344.73645,354.4947,361.1699,367.6664,375.3556,369.7939,358.60425,347.78177,345.9575,347.48468,339.68408,320.01584,305.9587,312.77762,336.94574,368.72693,407.1182,436.6782,442.3881,453.97888,496.21124,563.78424,666.72723,765.3606,785.41174,736.70044,686.2581,675.8741,695.6885,737.32526,776.70135,779.58124,767.85205,750.93286,714.5385,687.2707,681.0161,680.1108,680.5819,681.34686,683.22546,664.6953,623.5307,590.5648,578.92426,566.1003,530.50635,484.5517,461.17938,471.0007,470.7263,433.3748,401.33765,399.05463,390.09842,364.24417,335.73587,308.2176,285.237,257.73096,233.08304,220.21658,188.44696,169.22212,211.83847,236.79732,242.80446,269.57477,290.31442,287.54816,270.71948,253.464,264.3108,270.4258,276.69446,339.13834,389.87805,365.66672,303.24484,276.3684,284.98953,279.60236,237.16115,174.62204,123.65814,91.165695,70.46396,48.588875,22.718233,6.0833597,4.0161667,12.934151,23.488611,22.161009,10.933367,2.7351317,0.3839829,0.028270897,1.6016729,13.839953,48.93158,103.605225,176.40173,253.50711,302.22632,343.52094,367.22144,322.2874,239.13232,184.7401,186.64886,185.76228,143.6481,122.36321,192.45193,336.1157,477.44556,523.0481,468.07898,375.092,294.14798,238.1228,224.03505,311.52066,423.42862,441.27356,404.20395,336.8698,220.79283,99.96882,29.770416,6.5133834,1.3630557,0.2348938,0.022934865,0.0011642084,3.7545227e-15,2.434051e-30,0.0,0.0,0.0,0.0,0.0,0.0,0.0,0.0,0.0,0.0,0.0,0.0,0.0,0.0,0.0,0.0,0.0,0.0,0.0,0.0,0.0,0.0,0.0,0.0,0.0,0.0,0.0,0.0,0.0,0.0,0.0,0.0,0.0,0.0,0.0,0.0,0.0,0.0,0.0,0.0,0.0,0.0,0.0,0.0,0.0,0.0,0.0,0.0,0.0,0.0,0.0,0.0,0.0,0.0,0.0,0.0,0.0,0.0,0.0,0.0,0.0,0.0,0.0,0.0,0.0,0.0,0.0,0.0,0.0,0.0,0.0,0.0,0.0,0.0,0.0,0.0,0.0,0.0,0.0,0.0,0.0,0.0,0.0,0.0,0.0,0.0,0.0,0.0,0.0,3.275753e-14,1.9109881,16.188938,50.589466,85.98642,124.794495,183.57793,242.5677,294.3506,370.9313,508.20523,674.0849,780.4987,759.80414,655.5521,527.86676,374.52563,227.31183,131.91687,86.32115,58.50533,32.75282,18.781857,29.508753,51.163692,76.98156,143.02696,245.29329,325.43954,372.13928,421.69162,501.71185,578.35095,579.48486,537.814,541.2274,602.08563,690.07117,771.48755,827.72485,769.46277,529.7244,280.08554,168.0445,142.07277,130.09256,107.19916,91.61331,101.97165,130.56119,130.43411,101.60416,107.688705,151.00107,204.22375,274.93817,292.42365,226.16196,158.6495,115.46006,90.272194,73.070404,51.375465,30.103127,13.906915,6.611684,10.667162,29.285456,53.758335,65.587845,58.96485,42.429626,24.396616,13.44625,13.82756,17.30374,14.437719,7.005155,1.7945144,0.21365856,0.008597821,8.853062e-05,4.2184533e-16,1.4695117e-15,2.8272569e-15,2.4370667e-15,0.0,0.0,0.0,0.0,0.0,0.0,0.0,0.0,0.0,0.0,0.0,0.0,0.0,0.0,0.0,0.0,0.0,0.0,0.0,0.0,0.0,0.0,0.0,0.0,0.0,0.0,0.0,0.0,0.0,0.0,0.0,0.0,0.0,0.0,0.0,0.0,0.0,0.0,0.0,0.0,0.0,0.0,0.0,0.0,0.0,0.0,0.0,0.0,0.0,0.0,0.0,0.0,0.0,0.0,0.0,0.0,0.0,0.0,0.0,0.0,0.0,0.0,0.0,0.0,0.0,0.0,0.0,0.0,0.0,0.0,0.0
446.2258,428.98514,410.2507,396.52386,387.67624,385.53458,383.80167,378.6507,371.37277,364.00342,358.06454,351.27975,343.1827,335.9159,329.70596,323.7758,317.83566,312.3554,307.98782,306.78918,308.9418,311.7677,312.44275,310.99585,308.31366,304.97,301.39877,297.24384,291.75,286.48822,281.7491,277.0327,272.698,268.87054,264.58197,259.63156,254.32787,249.46053,245.608,242.09125,237.93893,230.90709,220.26913,208.74817,197.35207,184.87056,171.46118,160.46124,153.24384,148.40218,143.2422,134.6336,124.45736,113.67374,101.720665,91.20575,88.658325,93.17847,100.47049,103.89143,100.770874,102.076866,108.54318,115.4564,122.29338,131.26042,142.56952,155.63083,174.10521,201.67717,235.93509,255.38142,260.92514,277.35236,308.34338,330.23056,323.8846,297.0747,275.4664,270.70624,273.10504,281.88507,296.3945,308.72015,316.9918,322.5628,337.33145,356.91043,370.70328,375.7621,364.77316,350.82968,348.27228,353.33356,350.40192,339.38342,331.19034,332.46475,344.4999,350.74594,347.3765,346.56427,348.77502,344.02194,332.261,327.25656,326.4402,318.7199,308.59143,307.90247,322.06458,354.79184,385.0953,400.14404,404.81137,401.0104,413.43353,455.02783,514.10394,600.89166,701.532,759.7705,765.6219,741.4893,696.501,669.97766,681.0437,701.3125,699.0878,694.1094,690.0734,672.0732,654.9154,647.80115,649.1709,656.43054,658.9326,665.0846,674.5811,678.5347,685.25977,700.512,699.4125,644.8808,543.93604,455.60065,417.0216,392.81406,354.2421,320.3346,311.54443,303.018,295.55203,303.82996,313.43143,315.59598,285.81003,235.44353,216.14815,187.57562,158.87581,182.9822,211.31865,214.58734,202.36285,182.93008,162.18997,147.02081,154.25945,185.31186,204.4385,216.49838,248.06908,278.3465,282.67343,275.89615,280.8011,284.05072,256.7157,202.81404,143.14038,93.049904,56.977425,32.86429,16.315823,5.4623675,1.530489,3.286169,8.703472,14.319915,13.0375395,5.952436,1.1595796,0.07342884,0.0009130049,1.3708146,11.881979,39.339214,71.67463,115.0684,171.89703,194.21497,179.92526,155.62021,120.28077,93.010635,95.647934,105.44659,103.96714,98.7885,133.45502,218.97812,330.796,417.0958,415.00397,355.67133,299.1946,249.34006,194.76662,196.07137,279.5287,315.7677,260.30948,199.64545,149.40317,86.45276,33.204197,7.7044935,0.8609786,0.0215973,6.93562e-14,2.631624e-15,5.249824e-28,6.6373504e-29,0.0,0.0,0.0,0.0,0.0,0.0,0.0,0.0,0.0,0.0,0.0,0.0,0.0,0.0,0.0,0.0,0.0,0.0,0.0,0.0,0.0,0.0,0.0,0.0,0.0,0.0,0.0,0.0,0.0,0.0,0.0,0.0,0.0,0.0,0.0,0.0,0.0,0.0,0.0,0.0,0.0,0.0,0.0,0.0,0.0,0.0,0.0,0.0,0.0,0.0,0.0,0.0,0.0,0.0,0.0,0.0,0.0,0.0,0.0,0.0,0.0,0.0,0.0,0.0,0.0,0.0,0.0,0.0,0.0,0.0,0.0,0.0,0.0,0.0,0.0,0.0,0.0,0.0,0.0,0.0,0.0,0.0,0.0,0.0,0.0,0.0,0.0,0.0,0.0,0.0,0.13199058,11.547881,83.10408,220.52739,301.78967,308.89615,304.62247,283.3383,280.82306,349.40924,495.80753,658.8908,776.8383,774.9291,669.2692,555.2754,436.16348,310.43616,216.67313,154.25456,96.868774,47.378933,22.403353,29.810717,51.763863,76.38922,134.42226,220.40274,285.40726,330.93726,372.32828,412.6798,463.32675,497.4636,501.7896,518.47894,584.66534,695.7625,825.96185,941.2819,919.8177,674.4886,367.4941,187.22314,121.80743,100.06218,81.611374,67.96827,71.866554,88.80394,88.916214,76.29992,94.57986,139.40335,178.7466,220.40434,230.87894,177.60396,113.72839,69.70115,45.60428,31.820206,18.905987,8.53217,2.8639846,1.6977345,6.4400425,18.588444,32.74896,40.552555,38.53888,30.059258,17.966894,8.277016,6.614436,7.752447,5.8641233,2.3553443,0.4198827,0.021897225,0.00016439933,2.8185786e-17,0.0,0.0,0.0,0.0,0.0,0.0,0.0,0.0,0.0,0.0,0.0,0.0,0.0,0.0,0.0,0.0,0.0,0.0,0.0,0.0,0.0,0.0,0.0,0.0,0.0,0.0,0.0,0.0,0.0,0.0,0.0,0.0,0.0,0.0,0.0,0.0,0.0,0.0,0.0,0.0,0.0,0.0,0.0,0.0,0.0,0.0,0.0,0.0,0.0,0.0,0.0,0.0,0.0,0.0,0.0,0.0,0.0,0.0,0.0,0.0,0.0,0.0,0.0,0.0,0.0,0.0,0.0,0.0,0.0,0.0,0.0,0.0,0.0,0.0,0.0
460.6688,443.5387,417.87134,401.63193,393.79553,390.77368,386.69873,380.27402,372.90735,366.74756,363.16846,358.63693,352.8899,347.15814,341.49207,335.82574,330.18204,324.75946,320.99115,320.9106,323.65686,326.13098,326.09766,324.05142,320.49136,315.71558,310.37845,304.39444,296.78882,291.37497,288.165,284.35046,278.63284,273.79285,268.86923,263.49387,258.36392,254.33371,250.63988,246.21204,240.4264,231.42358,218.3995,203.59921,189.10411,175.2941,163.70059,155.06973,148.77255,143.1372,135.08781,123.70212,112.627205,102.37879,91.77147,85.14934,85.69228,90.50567,96.04125,98.565414,101.96371,108.35945,115.901375,124.45068,132.03563,139.28262,152.31105,174.6146,202.71263,228.19553,241.97278,245.57364,261.4763,290.40848,315.2694,325.67377,322.0959,302.3132,287.66736,289.2911,288.67325,286.4545,289.33292,297.35864,311.77725,321.1814,329.7765,347.06454,363.615,365.21646,351.35052,337.3505,334.35324,337.33466,335.14136,332.4487,334.4932,337.10132,341.49667,346.34207,342.25272,334.79562,334.70303,333.8194,325.38602,320.94864,325.34268,328.82562,332.01532,342.6641,365.0416,401.75098,430.55084,434.7851,418.481,396.76016,396.44345,428.41882,487.55478,573.66614,660.1064,698.9586,719.6946,741.61896,724.03,688.24426,667.4615,657.54254,642.87244,642.5646,648.85187,638.126,626.13776,626.28015,645.1806,671.5768,677.6574,676.169,692.3909,724.1586,760.6029,786.3337,767.8322,686.4734,566.92975,456.307,381.4605,335.23087,302.2068,276.10965,261.28436,248.00188,246.09575,270.07663,312.10196,347.51068,317.58337,255.98479,267.06284,277.4093,260.5396,246.80855,218.58817,167.17744,119.6543,95.231636,84.88006,87.78629,124.79068,176.97131,213.60396,241.15747,259.44376,264.0838,273.41064,294.85516,309.83652,290.1837,241.33745,174.45842,108.111534,60.935528,32.876957,15.050942,4.939518,1.2379467,1.1746176,2.1647365,2.8613865,3.1799355,2.5834105,1.093648,0.18602538,0.008923765,0.0031241474,0.58308184,5.864353,21.280128,33.080822,42.015293,68.08446,94.78444,88.357376,56.621246,38.61217,55.43944,79.45376,75.32748,69.37072,108.97494,205.56648,301.09848,362.41382,383.63904,353.39056,296.73773,246.056,194.56992,136.21788,130.80865,166.82298,157.05585,108.63001,73.30235,47.08955,20.766489,5.326988,0.8539337,0.07228392,3.276221e-15,0.0,0.0,0.0,0.0,0.0,0.0,0.0,0.0,0.0,0.0,0.0,0.0,0.0,0.0,0.0,0.0,0.0,0.0,0.0,0.0,0.0,0.0,0.0,0.0,0.0,0.0,0.0,0.0,0.0,0.0,0.0,0.0,0.0,0.0,0.0,0.0,0.0,0.0,0.0,0.0,0.0,0.0,0.0,0.0,0.0,0.0,0.0,0.0,0.0,0.0,0.0,0.0,0.0,0.0,0.0,0.0,0.0,0.0,0.0,0.0,0.0,0.0,0.0,0.0,0.0,0.0,0.0,0.0,0.0,0.0,0.0,0.0,0.0,0.0,0.0,0.0,0.0,0.0,0.0,0.0,0.0,0.0,0.0,0.0,0.0,0.0,0.0,0.0,0.0,8.437079e-17,5.4018836e-15,0.023377199,0.13308534,0.2585037,2.5630627,29.782381,146.67412,348.97995,476.5763,505.8586,488.0926,387.2521,309.68182,328.18466,411.42368,551.26825,711.6103,777.283,737.11084,692.64746,604.7654,448.99808,313.35684,216.2793,128.56786,61.050312,27.91191,29.506237,50.27736,76.56337,126.09605,201.72334,271.1465,315.11078,332.51285,348.52325,405.9769,477.8919,500.26746,509.2011,579.36316,709.86145,893.6762,1071.2466,1071.3613,825.4769,490.28204,251.48595,140.2579,99.38576,79.33979,68.58938,69.7428,73.13694,67.06374,56.97197,70.63678,108.57946,137.07289,160.00946,168.28824,129.27884,71.23992,33.512638,15.884529,7.3616695,2.856971,0.8233647,0.15284052,0.17830426,1.1838211,3.6137328,6.582062,8.979439,9.789745,8.92057,6.0143485,2.5135577,1.1733736,1.0661045,0.74382436,0.26282504,0.035275806,9.2497455e-15,0.0,0.0,0.0,0.0,0.0,0.0,0.0,0.0,0.0,0.0,0.0,0.0,0.0,0.0,0.0,0.0,0.0,0.0,0.0,0.0,0.0,0.0,0.0,0.0,0.0,0.0,0.0,0.0,0.0,0.0,0.0,0.0,0.0,0.0,0.0,0.0,0.0,0.0,0.0,0.0,0.0,0.0,0.0,0.0,0.0,0.0,0.0,0.0,0.0,0.0,0.0,0.0,0.0,0.0,0.0,0.0,0.0,0.0,0.0,0.0,0.0,0.0,0.0,0.0,0.0,0.0,0.0,0.0,0.0,0.0,0.0,0.0,0.0,0.0,0.0,0.0,0.0
470.47388,452.5145,423.73282,406.37393,399.281,395.08618,390.5501,385.12067,378.72974,373.08533,370.12842,367.3528,363.57675,359.3848,355.09763,350.66757,346.12054,341.32092,337.67157,337.84027,341.1287,343.38098,342.17752,339.0356,335.35416,329.4428,319.24774,305.89395,291.84238,282.36133,279.24487,278.12964,274.07593,270.15628,266.18127,261.96774,258.0945,255.36946,252.42561,248.2716,242.02292,231.85782,216.73114,198.92311,181.99617,166.72336,153.93187,144.89363,138.55699,132.22014,122.16002,110.081215,100.30417,92.55957,85.99631,83.41084,84.211136,86.778496,90.1554,95.4358,104.99451,114.26327,121.655785,129.78015,138.60796,147.33517,164.11372,195.36092,225.84569,235.05626,229.36244,243.08174,279.9949,307.5963,309.63684,317.547,326.5361,313.42065,316.23544,328.50085,324.05014,313.42538,307.43088,308.82187,321.32718,332.10303,336.34973,350.03235,365.33847,365.27347,351.0044,334.79483,327.81586,328.35648,327.74457,327.442,331.3688,333.2088,329.62683,330.29852,328.44467,320.5807,317.18057,316.05154,315.58218,323.11768,346.18945,369.81003,384.78217,405.06644,438.76816,472.316,495.36023,495.08127,458.52103,423.49194,416.56952,439.00903,495.2937,575.2237,648.0571,674.12805,663.94116,659.032,661.07544,655.749,654.4043,653.5951,636.0321,622.9341,627.404,624.0468,615.26953,628.3349,673.35925,723.56635,736.41846,728.9658,743.9918,778.62305,814.0653,833.0932,784.17413,680.0508,583.3831,476.8545,375.51007,319.41953,298.4378,286.3231,271.61972,254.82552,251.84622,283.11694,333.10367,368.2347,329.10822,275.30612,309.19083,366.495,375.77832,320.8371,220.03925,122.0001,65.73476,50.650578,57.120365,88.52943,151.34131,211.19412,249.00528,282.16858,288.7624,261.0894,247.19,260.37967,268.07892,247.33963,202.69875,145.61818,81.2397,37.68761,19.079819,8.048607,1.737721,0.30870444,0.69712836,1.1454787,0.83516556,0.3100628,0.13188049,0.0424277,0.0044262838,1.0213371e-15,0.001261451,0.0884277,1.7821797,8.553007,13.310686,12.516444,19.266432,32.75589,31.337523,17.58116,20.63975,50.88844,62.279224,45.86881,62.217434,151.1692,284.2419,376.1287,394.35547,362.20016,300.59845,220.7098,146.87059,93.17972,58.046814,57.12412,65.72044,48.79236,25.874966,15.360946,8.391329,2.5364754,0.29395542,0.004823052,3.8507167e-27,0.0,0.0,0.0,0.0,0.0,0.0,0.0,0.0,0.0,0.0,0.0,0.0,0.0,0.0,0.0,0.0,0.0,0.0,0.0,0.0,0.0,0.0,0.0,0.0,0.0,0.0,0.0,0.0,0.0,0.0,0.0,0.0,0.0,0.0,0.0,0.0,0.0,0.0,0.0,0.0,0.0,0.0,0.0,0.0,0.0,0.0,0.0,0.0,0.0,0.0,0.0,0.0,0.0,0.0,0.0,0.0,0.0,0.0,0.0,0.0,0.0,0.0,0.0,0.0,0.0,0.0,0.0,0.0,0.0,0.0,0.0,0.0,0.0,0.0,0.0,0.0,0.0,0.0,0.0,0.0,0.0,0.0,0.0,0.0,0.0,0.0,0.0,8.7416996e-17,2.1263218e-15,1.3546591e-14,0.00016667634,0.011420489,0.811568,5.184896,11.116836,22.191725,79.06598,160.8604,240.26239,314.8303,374.288,396.69586,356.6768,376.12262,412.10794,393.6465,447.50653,593.5022,720.34485,770.2315,794.47565,726.1198,544.1165,375.63672,250.07051,145.47917,73.316154,36.955704,32.335537,50.02502,75.95941,117.84525,184.58127,252.20604,285.72827,285.03217,294.7539,360.5357,443.77148,480.4597,530.66327,641.1158,770.48474,953.8762,1135.8115,1119.2955,878.1682,572.49,327.86783,185.58522,129.67673,104.87161,95.99514,101.83846,100.64151,84.984505,60.812057,49.771446,67.19183,88.24446,107.76645,113.75995,80.69266,35.059296,11.266802,3.2506871,0.74641335,0.09125379,0.0036925091,7.218098e-05,0.00010960158,0.022913376,0.119470276,0.13523184,0.14537464,0.42459065,0.59738797,0.50633776,0.2099204,0.045364603,0.0064370534,0.000671004,9.810424e-14,9.846254e-15,2.8438087e-27,0.0,0.0,0.0,0.0,0.0,0.0,0.0,0.0,0.0,0.0,0.0,0.0,0.0,0.0,0.0,0.0,0.0,0.0,0.0,0.0,0.0,0.0,0.0,0.0,0.0,0.0,0.0,0.0,0.0,0.0,0.0,0.0,0.0,0.0,0.0,0.0,0.0,0.0,0.0,0.0,0.0,0.0,0.0,0.0,0.0,0.0,0.0,0.0,0.0,0.0,0.0,0.0,0.0,0.0,0.0,0.0,0.0,0.0,0.0,0.0,0.0,0.0,0.0,0.0,0.0,0.0,0.0,0.0,0.0,0.0,0.0,0.0,0.0,0.0,0.0,0.0,0.0
476.43314,455.64426,428.79044,411.7404,404.60043,400.72266,396.40668,391.7398,387.2823,383.1496,379.75464,377.2951,374.3131,371.05432,368.9032,367.08878,364.63354,360.73718,358.5785,360.328,363.94028,367.80573,366.51898,359.21558,353.62262,346.89798,332.28485,310.7054,289.3041,271.7207,260.83533,256.97958,255.2475,254.32765,253.26408,251.40628,249.89662,250.46194,249.9055,247.68135,242.85323,232.2354,215.57028,194.98659,175.57968,158.76965,143.28265,131.72165,123.767715,116.32378,108.16398,98.854485,90.653305,85.86952,83.54022,82.727104,82.78093,83.800835,87.436005,96.723816,108.464264,115.9647,120.85662,127.83563,136.88522,148.13927,171.66487,210.2138,231.0949,217.69717,211.63905,237.30177,269.6081,278.74164,272.4657,287.8548,301.81415,308.17325,328.44888,347.19754,351.4676,347.3032,340.69232,334.28928,336.81146,344.2694,350.30643,358.30115,365.89676,364.05487,352.86166,338.28998,327.52377,323.5746,323.22168,323.10928,320.87268,314.78107,309.758,308.14505,306.6937,304.75616,305.99896,311.2525,321.64215,347.37656,398.74576,439.56152,462.57996,492.0351,521.9184,539.061,551.3926,545.00006,497.10776,459.21753,453.59836,472.3296,523.9982,591.6187,644.3696,656.22046,629.07104,607.1094,602.1104,597.31616,609.78217,635.42035,634.7865,612.3869,603.18854,601.74646,606.5459,641.84546,715.22565,795.1034,823.31714,816.3559,826.4405,842.30475,850.90845,849.3049,783.4298,676.89624,588.7686,484.72458,381.70956,332.46603,317.65756,312.35403,300.137,289.79828,294.8764,324.12845,361.74582,364.85162,311.49316,275.27643,312.6694,386.9694,422.3235,357.30734,223.64015,108.98291,57.217484,55.286346,74.289856,113.74335,167.47113,205.45113,215.9386,223.84244,216.98207,183.5179,160.22084,161.19395,175.6595,177.38742,161.63315,126.995636,66.240814,21.349302,7.2889414,2.5088513,0.55105174,0.1274998,0.11759602,0.1851554,0.11894315,0.019596627,0.00023985001,5.5336764e-15,3.2725773e-17,1.1476129e-28,3.3968777e-16,0.10833379,1.5959404,6.0815034,7.9681263,5.542032,4.732606,5.844778,4.9807124,3.6351516,13.307108,36.631565,39.110966,25.028355,48.686264,127.17059,224.26775,285.34677,286.2389,246.10132,189.44696,123.006516,62.599834,26.53017,13.683622,14.416485,16.295876,9.770469,3.0060303,1.2402209,0.57855606,0.094752766,0.0022729607,1.6503721e-15,6.5149684e-28,0.0,0.0,0.0,0.0,0.0,0.0,0.0,0.0,0.0,0.0,0.0,0.0,0.0,0.0,0.0,0.0,0.0,0.0,0.0,0.0,0.0,0.0,0.0,0.0,0.0,0.0,0.0,0.0,0.0,0.0,0.0,0.0,0.0,0.0,0.0,0.0,0.0,0.0,0.0,0.0,0.0,0.0,0.0,0.0,0.0,0.0,0.0,0.0,0.0,0.0,0.0,0.0,0.0,0.0,0.0,0.0,0.0,0.0,0.0,0.0,0.0,0.0,0.0,0.0,0.0,0.0,0.0,0.0,0.0,0.0,0.0,0.0,0.0,0.0,0.0,0.0,0.0,0.0,0.0,0.0,0.0,0.0,0.0,0.0,0.0,0.0,1.295043e-15,0.0018873578,0.04467884,0.28863034,0.7379104,1.4389652,7.9992385,33.59166,66.50866,84.12011,172.56639,230.35605,184.15474,188.12732,225.71051,240.67416,258.5245,346.41327,416.4543,405.83365,417.32602,508.2893,636.98785,722.78094,747.0683,660.70844,498.20578,365.2502,255.99582,154.79617,84.45288,46.297638,32.9949,42.193676,64.293755,97.68435,148.56903,202.39587,226.97568,224.07251,235.94214,297.14865,370.71783,432.5815,551.9306,701.75964,821.109,991.99646,1155.3118,1109.8732,868.2421,593.69653,370.58224,227.46657,162.83014,132.98227,125.10865,130.66377,123.86294,99.373405,67.2343,43.699947,40.282772,48.716187,64.33925,64.86185,39.21934,12.821402,2.4620512,0.341823,0.029208427,7.939935e-14,6.596737e-16,1.2278212e-18,5.959849e-17,6.3995536e-17,1.5600958e-14,3.0658452e-14,1.611287e-14,1.3901206e-15,9.43078e-05,5.353065e-05,6.745104e-06,7.674241e-15,1.6632446e-15,1.5732839e-16,4.9351257e-29,0.0,0.0,0.0,0.0,0.0,0.0,0.0,0.0,0.0,0.0,0.0,0.0,0.0,0.0,0.0,0.0,0.0,0.0,0.0,0.0,0.0,0.0,0.0,0.0,0.0,0.0,0.0,0.0,0.0,0.0,0.0,0.0,0.0,0.0,0.0,0.0,0.0,0.0,0.0,0.0,0.0,0.0,0.0,0.0,0.0,0.0,0.0,0.0,0.0,0.0,0.0,0.0,0.0,0.0,0.0,0.0,0.0,0.0,0.0,0.0,0.0,0.0,0.0,0.0,0.0,0.0,0.0,0.0,0.0,0.0,0.0,0.0,0.0,0.0,0.0,0.0,0.0,0.0,0.0
495.4385,470.0615,442.42822,423.86783,414.38202,410.3079,405.42966,399.52338,395.31046,391.94647,389.05472,387.16455,384.83087,383.45807,384.704,386.31613,387.38934,387.6218,388.8778,390.74496,391.52963,391.91165,386.8428,375.06885,363.70963,354.05597,341.6208,319.94293,293.41357,267.7629,247.64366,234.75015,229.72728,229.83345,229.93027,230.11252,233.11742,238.87231,241.16243,240.30714,235.71474,225.16344,209.63527,190.17537,169.35384,149.94687,133.51045,122.01653,114.06013,106.00991,98.75611,90.96916,84.23333,82.7715,84.18872,83.40571,82.37566,82.534615,85.628685,96.50717,107.70935,111.74537,115.74341,124.04988,130.26219,138.56844,166.1785,201.28665,203.63686,186.09425,197.56708,218.97403,231.95497,235.34654,235.94252,250.24533,267.32755,285.9773,311.67688,336.92786,359.03378,373.40076,372.49014,364.30582,361.31427,363.23544,364.66644,364.33124,362.2743,359.0885,355.31427,346.20245,332.48877,322.687,319.1235,320.54263,319.88828,311.09647,300.66873,296.33704,297.69577,303.29797,311.89163,327.29465,350.84088,397.80536,464.71027,515.81244,551.9431,572.86633,569.865,559.5166,563.2417,563.55505,528.7576,491.57578,482.17255,500.4307,546.17145,598.46106,626.23865,615.79706,606.4282,636.6146,649.7911,613.1575,590.7833,613.7029,625.97327,605.65735,583.223,571.1621,581.3346,623.5407,700.28534,801.627,876.9591,907.5519,926.1615,918.4751,900.3204,864.6917,767.9722,664.63556,576.325,473.79425,384.82724,344.13156,337.41757,344.31754,351.4357,357.5451,361.4436,369.23746,376.77936,346.9457,294.9659,288.8707,339.1468,416.9899,467.678,406.57352,255.27428,128.35898,85.00864,109.33621,143.00865,154.15413,151.73997,137.95483,117.62338,104.82401,97.67277,89.78698,80.26013,77.24841,91.16054,105.613846,119.02801,109.88539,56.292923,11.8671255,1.4391565,0.32961118,0.30047727,0.20746635,0.037449222,0.0009108414,4.7674068e-15,3.0649267e-15,2.6141877e-16,5.4673557e-18,0.0,0.0,1.3941963e-13,0.3334935,2.7099288,7.06984,6.934948,3.138389,1.1075145,0.5062691,0.2539204,0.6646812,5.229994,15.745845,17.952993,12.901678,28.315128,70.97146,115.10425,131.79817,115.87588,87.82203,61.52797,34.385536,12.649609,3.7270074,1.3301058,1.4181241,1.692029,0.9314032,0.1428922,5.3968237e-14,2.630646e-14,1.4611386e-14,3.29295e-16,0.0,0.0,0.0,0.0,0.0,0.0,0.0,0.0,0.0,0.0,0.0,0.0,0.0,0.0,0.0,0.0,0.0,0.0,0.0,0.0,0.0,0.0,0.0,0.0,0.0,0.0,0.0,0.0,0.0,0.0,0.0,0.0,0.0,0.0,0.0,0.0,0.0,0.0,0.0,0.0,0.0,0.0,0.0,0.0,0.0,0.0,0.0,0.0,0.0,0.0,0.0,0.0,0.0,0.0,0.0,0.0,0.0,0.0,0.0,0.0,0.0,0.0,0.0,0.0,0.0,0.0,0.0,0.0,0.0,0.0,0.0,0.0,0.0,0.0,0.0,0.0,0.0,0.0,0.0,0.0,0.0,0.0,0.0,0.0,0.0,0.0,0.0,2.2804592e-15,0.008563067,0.23266836,2.3728752,10.579051,21.72321,25.397875,43.296917,97.86579,150.15067,150.14029,213.02083,269.84503,243.94963,268.76642,298.64383,306.36325,296.8676,289.99222,326.6741,393.22543,442.64804,481.62064,550.7422,614.8269,605.4666,505.87036,410.85648,350.79105,262.12906,158.59274,87.30029,47.819088,28.064613,27.718624,43.152115,71.085205,113.512115,158.59657,177.51111,175.56218,186.71898,227.67888,281.3059,360.13925,506.8441,664.87616,805.83984,1007.1218,1181.5435,1154.2949,950.1795,690.51355,446.6633,279.53094,199.61914,162.74455,149.0729,146.76082,137.97266,112.55381,80.10667,58.823475,40.44941,26.62456,28.843346,25.979132,12.61647,3.065031,0.34073442,0.013629787,4.021433e-15,0.0,0.0,0.0,0.0,0.0,0.0,0.0,0.0,0.0,0.0,2.7126081e-18,2.990494e-19,0.0,0.0,0.0,0.0,0.0,0.0,0.0,0.0,0.0,0.0,0.0,0.0,0.0,0.0,0.0,0.0,0.0,0.0,0.0,0.0,0.0,0.0,0.0,0.0,0.0,0.0,0.0,0.0,0.0,0.0,0.0,0.0,0.0,0.0,0.0,0.0,0.0,0.0,0.0,0.0,0.0,0.0,0.0,0.0,0.0,0.0,0.0,0.0,0.0,0.0,0.0,0.0,0.0,0.0,0.0,0.0,0.0,0.0,0.0,0.0,0.0,0.0,0.0,0.0,0.0,0.0,0.0,0.0,0.0,0.0,0.0,0.0,0.0,0.0,0.0,0.0,0.0,0.0,0.0,0.0,0.0,0.0,0.0
517.89136,491.4002,463.91006,444.74643,438.11566,434.39407,424.27234,415.0579,408.27866,401.54898,398.27948,397.88544,397.80707,399.5819,403.8885,407.2966,410.2482,415.7086,421.10272,422.26382,417.8777,410.5242,399.89767,387.21924,372.75607,356.01038,338.4203,318.44644,289.46722,259.65033,235.81853,220.39241,214.03137,211.18083,207.04526,204.49437,208.46895,216.19406,220.80807,220.70364,215.48244,206.112,193.53256,178.47849,161.38208,142.84453,126.24526,115.61091,109.712746,102.08899,94.55389,89.56496,86.0769,86.75286,87.58355,86.05974,86.79169,86.162,84.561356,91.55546,101.08948,105.237274,110.20466,117.36728,120.00542,126.68657,146.27707,165.39455,170.26443,179.12724,201.7897,217.78313,228.56491,241.21912,250.75264,260.04248,270.87018,282.20312,307.8339,345.29065,374.75598,392.12045,394.39117,389.73016,387.3708,381.92303,372.4981,362.8971,354.08273,351.07788,354.19296,349.52536,334.92532,321.4619,312.57578,310.40952,309.9623,304.86166,299.5699,300.88657,308.4949,319.7492,335.45697,358.80624,390.36957,442.74802,511.1727,584.6923,643.154,638.36163,589.28687,548.41327,536.72815,540.1647,528.09204,504.77988,496.4289,512.3215,549.4454,583.9241,593.6648,576.9589,596.5993,685.6355,749.9781,705.84094,617.6974,593.2143,596.6047,581.50354,564.7689,561.882,577.10767,618.73553,679.07306,765.31067,877.7783,973.9293,1018.17395,1002.4379,961.4619,882.1766,753.02704,640.59033,551.8774,463.658,398.13098,381.67642,405.04446,440.58694,468.64322,472.81482,454.8765,435.87927,426.59656,386.6443,338.83002,370.00848,447.94745,499.47095,516.11346,442.31717,282.47083,151.13818,108.514015,140.30553,177.8716,180.88237,139.73859,82.85041,47.507584,32.423367,28.454128,31.935514,32.567303,33.013504,44.72518,60.088173,86.41747,91.59946,44.38795,7.7559423,0.47056425,0.32842827,0.45343515,0.23250845,0.046231065,0.0031908075,1.382695e-15,0.0,0.0,0.0,0.0,0.0,1.0470261e-13,0.2357466,1.618834,3.6482794,3.2756689,1.248712,0.20829768,0.022227509,0.001872394,0.06994789,0.78010964,2.7840736,3.777352,4.967972,16.237438,39.308346,54.77455,46.677914,26.764488,13.3798,7.174059,2.7743812,0.83392185,0.09874909,0.0023417163,8.68642e-14,1.4625786e-14,3.932734e-14,2.3716638e-14,5.717682e-26,0.0,0.0,0.0,0.0,0.0,0.0,0.0,0.0,0.0,0.0,0.0,0.0,0.0,0.0,0.0,0.0,0.0,0.0,0.0,0.0,0.0,0.0,0.0,0.0,0.0,0.0,0.0,0.0,0.0,0.0,0.0,0.0,0.0,0.0,0.0,0.0,0.0,0.0,0.0,0.0,0.0,0.0,0.0,0.0,0.0,0.0,0.0,0.0,0.0,0.0,0.0,0.0,0.0,0.0,0.0,0.0,0.0,0.0,0.0,0.0,0.0,0.0,0.0,0.0,0.0,0.0,0.0,0.0,0.0,0.0,0.0,0.0,0.0,0.0,0.0,0.0,0.0,0.0,0.0,0.0,0.0,0.0,0.0,0.0,0.0,0.0,0.0,0.0,0.0,0.0,1.2661325e-14,0.11702485,2.887333,24.067375,89.33711,159.03705,154.26434,154.63803,224.14693,247.32628,185.86191,172.54697,212.59183,268.89212,343.066,366.71622,370.1503,333.4836,271.22083,283.06772,380.14676,484.3861,521.75995,541.41473,572.03925,530.069,433.41852,398.4443,370.42792,262.03955,141.09903,70.31944,35.897118,18.56515,15.053634,23.832176,48.99208,93.04991,132.3803,144.67844,146.7108,157.00174,175.91467,211.73462,294.35638,444.08688,604.9133,761.207,968.6836,1158.7407,1198.3845,1072.2258,833.47156,556.38275,349.56662,247.18678,197.37457,171.9654,161.5133,157.44754,139.86533,104.130486,72.274315,44.357243,18.505157,8.500146,5.4492006,2.0981297,0.36162865,0.020960938,1.3208149e-14,0.0,0.0,0.0,0.0,0.0,0.0,0.0,0.0,0.0,0.0,0.0,0.0,0.0,0.0,0.0,0.0,0.0,0.0,0.0,0.0,0.0,0.0,0.0,0.0,0.0,0.0,0.0,0.0,0.0,0.0,0.0,0.0,0.0,0.0,0.0,0.0,0.0,0.0,0.0,0.0,0.0,0.0,0.0,0.0,0.0,0.0,0.0,0.0,0.0,0.0,0.0,0.0,0.0,0.0,0.0,0.0,0.0,0.0,0.0,0.0,0.0,0.0,0.0,0.0,0.0,0.0,0.0,0.0,0.0,0.0,0.0,0.0,0.0,0.0,0.0,0.0,0.0,0.0,0.0,0.0,0.0,0.0,0.0,0.0,0.0,0.0,0.0,0.0,0.0,0.0,0.0,0.0,0.0,0.0,0.0,0.0
518.82263,501.88416,479.50122,463.6795,460.42188,454.89914,442.31274,430.83206,421.1883,411.89774,409.85574,413.6377,416.84933,418.53357,421.69507,425.57394,429.53134,437.0202,445.01736,444.88632,434.53262,420.8515,408.5749,397.47812,379.42886,360.20663,340.71494,317.03854,285.62585,254.74475,230.49037,219.48167,214.01414,203.84642,191.12663,180.23778,177.2556,182.41068,188.70718,190.67545,186.69833,178.64424,169.05733,158.95358,149.36646,138.07451,121.70453,106.528564,99.40851,95.33022,93.8197,98.298836,102.068054,97.09498,90.89725,92.50654,99.71018,100.35804,92.52053,88.611465,93.815506,99.23096,102.927864,105.89605,107.249535,111.46742,122.139275,140.18434,165.29391,196.7779,222.64786,235.27583,243.76372,257.2353,271.2245,289.51556,304.22397,303.1906,315.3993,349.34454,383.61307,405.8454,408.2467,403.2141,396.40677,383.30222,370.24283,357.25662,345.50107,341.4145,342.822,337.73618,326.84958,316.8268,309.9741,305.8816,301.5319,299.6989,304.99115,315.9049,329.57404,348.02917,369.7785,392.2632,419.91296,467.40582,542.67676,637.0566,696.6525,663.0104,598.2632,554.7754,529.22845,510.39087,487.7312,484.09048,493.73508,510.2576,542.5578,568.4824,567.7998,566.6403,622.46826,730.99115,819.259,785.3526,662.88635,588.1708,572.5867,567.0359,573.46814,585.90454,599.6771,635.2169,690.6042,765.89325,890.1805,1026.6812,1096.3472,1081.87,1015.2095,896.68915,760.15955,647.678,554.8672,487.6043,461.0415,484.87167,545.92395,591.0194,594.4922,587.2825,569.3156,543.8821,539.3163,507.60092,442.87762,462.3576,537.4516,540.2155,496.74905,403.7148,264.82422,163.66139,127.469215,124.659454,129.27988,129.74745,95.440315,49.26748,25.740196,15.160199,10.169041,12.724143,15.910847,14.917977,19.93791,30.103455,56.408443,61.811684,28.60909,5.604516,0.45542273,0.27397108,0.31051725,0.1221009,0.019166965,0.0008741386,0.0,0.0,0.0,0.0,0.0,0.0,0.0,0.03446348,0.22569068,0.49091747,0.4389963,0.16066968,0.017386774,1.2307769e-14,6.7056454e-16,3.8989164e-14,0.026063884,0.13916819,0.33678776,1.5080315,6.240998,14.068825,17.082857,11.019221,3.601889,0.6484699,1.0523002e-12,4.835931e-13,1.8102829e-13,4.1865637e-14,1.7722975e-15,0.0,0.0,0.0,0.0,0.0,0.0,0.0,0.0,0.0,0.0,0.0,0.0,0.0,0.0,0.0,0.0,0.0,0.0,0.0,0.0,0.0,0.0,0.0,0.0,0.0,0.0,0.0,0.0,0.0,0.0,0.0,0.0,0.0,0.0,0.0,0.0,0.0,0.0,0.0,0.0,0.0,0.0,0.0,0.0,0.0,0.0,0.0,0.0,0.0,0.0,0.0,0.0,0.0,0.0,0.0,0.0,0.0,0.0,0.0,0.0,0.0,0.0,0.0,0.0,0.0,0.0,0.0,0.0,0.0,0.0,0.0,0.0,0.0,0.0,0.0,0.0,0.0,0.0,0.0,0.0,0.0,0.0,0.0,0.0,0.0,0.0,0.0,0.0,0.0,0.0,0.0,0.0,0.0,0.0,0.0,1.5471432e-13,0.45004386,11.0225315,82.66519,272.31616,444.04327,408.26297,342.10852,406.6603,389.34537,248.2776,162.21318,162.84435,220.71738,289.54202,299.98923,282.31216,252.20348,220.09396,225.25119,303.09848,443.88187,529.6747,576.1972,608.54663,514.631,366.2672,305.05914,266.1252,176.21178,86.20524,37.726772,17.265211,8.547973,7.1951256,11.942262,30.28977,70.33336,105.32545,117.090164,126.22746,144.48917,164.51944,196.26837,280.57803,441.06223,598.965,727.9007,894.31903,1069.3232,1151.9995,1077.2437,864.68304,613.2411,419.4436,305.19888,237.0255,196.44691,177.02765,169.8053,148.70541,103.223595,60.11942,33.212128,13.81337,2.9052684,0.4734765,0.11931473,0.013270149,1.0533417e-14,2.8036186e-27,0.0,0.0,0.0,0.0,0.0,0.0,0.0,0.0,0.0,0.0,0.0,0.0,0.0,0.0,0.0,0.0,0.0,0.0,0.0,0.0,0.0,0.0,0.0,0.0,0.0,0.0,0.0,0.0,0.0,0.0,0.0,0.0,0.0,0.0,0.0,0.0,0.0,0.0,0.0,0.0,0.0,0.0,0.0,0.0,0.0,0.0,0.0,0.0,0.0,0.0,0.0,0.0,0.0,0.0,0.0,0.0,0.0,0.0,0.0,0.0,0.0,0.0,0.0,0.0,0.0,0.0,0.0,0.0,0.0,0.0,0.0,0.0,0.0,0.0,0.0,0.0,0.0,0.0,0.0,0.0,0.0,0.0,0.0,0.0,0.0,0.0,0.0,0.0,0.0,0.0,0.0,0.0,0.0,0.0,0.0,0.0
525.14575,507.21066,488.27087,478.71414,476.8715,467.67548,453.49365,439.6251,427.02097,421.89413,425.07883,430.90555,432.229,425.38403,422.8148,430.21298,442.6666,451.56973,454.24,446.90585,430.63165,412.1531,399.65283,387.02777,365.8062,342.60004,326.80167,308.70828,279.87573,248.10446,227.39915,222.81438,218.27771,199.58215,174.76878,156.83,147.73201,148.20114,153.80103,157.6442,155.8787,148.8667,141.69722,136.64093,136.50267,136.71544,122.89419,100.562935,86.34077,82.5016,88.73954,110.35399,126.93044,117.12446,100.64375,100.75133,109.902016,110.919464,99.39515,86.523125,85.77601,89.532875,90.933075,91.39558,93.20345,97.72922,109.259895,135.65111,175.9867,207.9881,225.86464,232.0472,233.31444,242.45506,260.83685,294.38217,323.79517,327.33328,339.15906,366.64615,405.49854,433.19574,431.37982,418.77344,403.65228,387.21573,372.21198,359.368,346.5515,337.49023,332.06317,325.91873,319.7168,315.96384,313.6267,310.66504,307.06238,308.75488,321.79578,339.69324,353.75842,375.45932,405.15897,425.4329,448.87207,506.3072,599.6585,682.1475,697.43646,665.0368,635.0803,603.65295,562.3554,513.45044,478.65112,487.94086,508.21307,520.6968,542.9043,559.3133,565.4362,599.96423,680.62445,765.741,810.8126,783.0881,697.17834,623.56274,593.44086,589.1084,597.71094,601.3636,600.75854,616.0073,655.45154,729.4458,860.8406,1026.3989,1136.4944,1129.0608,1033.7915,912.5586,794.11536,676.1853,586.58936,560.97363,577.5013,624.0171,708.6737,735.9812,695.0019,688.0928,709.8319,691.03687,648.1728,578.56915,489.33344,478.28876,510.46542,485.788,431.53635,341.5832,251.17119,215.30333,198.56422,147.11186,93.88067,72.52726,56.79274,42.75633,30.56846,18.140284,12.35403,13.121887,11.522095,6.9483976,5.581784,9.922463,26.42097,30.867142,14.632257,2.9924352,0.24515443,0.06912669,0.0773854,0.030787911,0.0038910955,1.8517222e-16,0.0,0.0,0.0,0.0,0.0,0.0,0.0,4.3890363e-15,2.9345728e-14,3.924093e-14,1.4957445e-14,6.762207e-27,9.1312244e-27,1.9902514e-27,0.0,0.0,3.2486426e-15,1.5990623e-14,0.015571528,0.16791497,0.72199816,1.5551903,1.709561,0.8623639,0.1520302,0.0020136589,0.0,0.0,0.0,0.0,0.0,0.0,0.0,0.0,0.0,0.0,0.0,0.0,0.0,0.0,0.0,0.0,0.0,0.0,0.0,0.0,0.0,0.0,0.0,0.0,0.0,0.0,0.0,0.0,0.0,0.0,0.0,0.0,0.0,0.0,0.0,0.0,0.0,0.0,0.0,0.0,0.0,0.0,0.0,0.0,0.0,0.0,0.0,0.0,0.0,0.0,0.0,0.0,0.0,0.0,0.0,0.0,0.0,0.0,0.0,0.0,0.0,0.0,0.0,0.0,0.0,0.0,0.0,0.0,0.0,0.0,0.0,0.0,0.0,0.0,0.0,0.0,0.0,0.0,0.0,0.0,0.0,0.0,0.0,0.0,0.0,0.0,0.0,0.0,0.0,0.0,0.0,0.0,0.0,0.0,0.0,0.0,0.0,0.0,0.0,0.0,5.434089e-13,0.7388193,18.503984,128.84767,384.78778,593.37146,574.7854,499.295,530.5945,486.54,312.10803,188.37407,144.46954,142.06493,164.47658,164.27571,140.92847,138.49512,156.69417,170.25966,214.11578,339.1917,474.44302,579.83966,594.5163,440.54416,249.42436,151.35692,107.064804,64.35319,29.11653,11.163208,4.4591074,2.2574208,2.417244,4.597262,13.722525,39.35203,68.568726,86.78031,106.68893,136.28575,164.47289,193.94,269.15796,422.67627,566.4372,663.22314,788.93207,934.7293,1039.7595,1032.1702,880.7814,671.8632,492.04803,358.27042,265.1465,206.19739,171.96336,149.24368,118.771736,75.93973,38.55894,17.364822,6.368948,1.0433384,0.023583699,0.0007607782,4.1621763e-28,4.697529e-28,0.0,0.0,0.0,0.0,0.0,0.0,0.0,0.0,0.0,0.0,0.0,0.0,0.0,0.0,0.0,0.0,0.0,0.0,0.0,0.0,0.0,0.0,0.0,0.0,0.0,0.0,0.0,0.0,0.0,0.0,0.0,0.0,0.0,0.0,0.0,0.0,0.0,0.0,0.0,0.0,0.0,0.0,0.0,0.0,0.0,0.0,0.0,0.0,0.0,0.0,0.0,0.0,0.0,0.0,0.0,0.0,0.0,0.0,0.0,0.0,0.0,0.0,0.0,0.0,0.0,0.0,0.0,0.0,0.0,0.0,0.0,0.0,0.0,0.0,0.0,0.0,0.0,0.0,0.0,0.0,0.0,0.0,0.0,0.0,0.0,0.0,0.0,0.0,0.0,0.0,0.0,0.0,0.0,0.0,0.0,0.0,0.0
533.64685,512.6388,498.13922,492.53107,490.47168,480.372,465.90012,448.87534,436.7655,441.323,447.0973,441.6652,429.7775,411.93863,403.7131,414.607,433.9426,446.10516,442.73853,426.62003,408.36578,391.81824,374.8999,358.35544,339.44907,315.65988,297.71075,282.71933,260.52225,234.72675,221.89932,221.54782,215.5703,192.8592,162.81981,139.45114,127.33575,123.607895,125.65995,129.42213,129.13744,123.3866,117.31019,116.23015,122.73621,129.1934,119.97385,98.26059,80.51772,73.330185,84.21471,117.50877,142.85692,132.90231,110.89675,108.83654,112.59266,105.37101,90.68452,79.41508,76.66567,77.95574,77.442375,78.467026,85.34965,95.93856,115.98574,144.0896,171.87985,193.90752,206.49083,209.03569,214.6616,243.37396,274.942,311.41156,346.9735,360.69736,381.1294,415.93906,453.3579,476.38837,469.12262,447.50696,425.5395,405.07877,384.8836,369.89188,356.34833,342.35867,330.47318,323.48862,322.00986,321.89484,319.20682,315.71756,314.41232,319.11395,335.18317,356.27567,366.45593,378.97382,407.9899,439.44382,480.98138,557.2667,656.0022,698.4025,671.0474,679.68304,689.8897,647.7869,584.0392,531.39075,519.48376,538.0398,553.2057,559.3694,566.46466,578.5155,604.33044,649.9441,716.8841,771.7874,785.41943,762.5798,718.04395,675.1447,645.12573,630.96716,625.5073,618.2937,611.00586,612.3576,632.34906,683.456,796.11487,971.7147,1133.8477,1166.8558,1074.5336,969.6005,843.08093,693.7857,615.6177,652.2453,703.8471,729.9997,782.90283,787.2717,732.5427,745.3041,815.6743,814.82544,706.63556,546.17096,452.0632,455.3111,440.51474,402.56052,362.0356,296.09036,273.9937,289.1286,254.67209,175.11429,105.15522,76.31044,65.05243,52.476074,38.282795,24.36417,20.92528,20.61762,12.106046,4.1266737,1.1128029,2.2012007,8.582309,11.014024,5.6836762,1.2472422,0.10500085,0.005117498,0.006023366,0.0026980878,0.0003560519,0.0,0.0,0.0,0.0,0.0,0.0,0.0,0.0,0.0,0.0,0.0,0.0,0.0,0.0,0.0,0.0,0.0,0.0,5.0052346e-27,1.7088452e-15,5.5631104e-15,4.189978e-14,2.6542532e-13,5.2263397e-13,2.31817e-13,5.7460924e-15,0.0,0.0,0.0,0.0,0.0,0.0,0.0,0.0,0.0,0.0,0.0,0.0,0.0,0.0,0.0,0.0,0.0,0.0,0.0,0.0,0.0,0.0,0.0,0.0,0.0,0.0,0.0,0.0,0.0,0.0,0.0,0.0,0.0,0.0,0.0,0.0,0.0,0.0,0.0,0.0,0.0,0.0,0.0,0.0,0.0,0.0,0.0,0.0,0.0,0.0,0.0,0.0,0.0,0.0,0.0,0.0,0.0,0.0,0.0,0.0,0.0,0.0,0.0,0.0,0.0,0.0,0.0,0.0,0.0,0.0,0.0,0.0,0.0,0.0,0.0,0.0,0.0,0.0,0.0,0.0,0.0,0.0,0.0,0.0,0.0,0.0,0.0,0.0,0.0,0.0,0.0,0.0,0.0,0.0,0.0,0.0,0.0,0.0,0.0,0.0,0.0,4.8265694e-13,0.6202563,16.303673,110.06335,312.0574,479.223,538.19775,537.8032,524.4082,450.47516,299.56158,172.09445,94.82423,60.235104,55.13669,52.375813,42.49403,50.527424,83.34106,123.1031,180.60904,303.8476,458.8967,548.605,493.67438,315.03656,145.9471,59.937798,27.81035,12.513299,4.4970746,1.3555379,0.44490573,0.23278946,0.31625402,0.79208654,3.9419193,15.804621,34.929573,57.41197,84.47093,116.26701,149.52472,174.8195,220.72672,332.99283,457.54514,542.5357,647.67224,774.306,893.76154,975.6703,931.1072,762.4616,565.97064,400.18887,280.02887,201.0052,149.35202,112.34584,79.824585,47.93954,21.442465,6.321313,1.2748383,0.13670254,8.009233e-15,0.0,0.0,0.0,0.0,0.0,0.0,0.0,0.0,0.0,0.0,0.0,0.0,0.0,0.0,0.0,0.0,0.0,0.0,0.0,0.0,0.0,0.0,0.0,0.0,0.0,0.0,0.0,0.0,0.0,0.0,0.0,0.0,0.0,0.0,0.0,0.0,0.0,0.0,0.0,0.0,0.0,0.0,0.0,0.0,0.0,0.0,0.0,0.0,0.0,0.0,0.0,0.0,0.0,0.0,0.0,0.0,0.0,0.0,0.0,0.0,0.0,0.0,0.0,0.0,0.0,0.0,0.0,0.0,0.0,0.0,0.0,0.0,0.0,0.0,0.0,0.0,0.0,0.0,0.0,0.0,0.0,0.0,0.0,0.0,0.0,0.0,0.0,0.0,0.0,0.0,0.0,0.0,0.0,0.0,0.0,0.0,0.0,0.0,0.0,0.0
539.0185,524.5897,526.54285,521.3903,507.41983,494.06613,476.58847,461.28186,461.61853,471.74792,466.45862,441.62286,412.95648,389.38837,378.89557,391.52554,417.37033,439.70825,435.729,408.82266,381.60034,363.42932,344.6295,329.16077,318.48013,307.3248,290.11017,267.9832,249.40814,234.2996,225.3978,218.44293,201.83685,175.11497,149.93985,130.43094,117.7204,110.21374,107.55116,108.85286,108.78034,104.596436,99.78266,101.19554,112.05427,119.89181,111.10639,90.36776,74.00547,68.56081,81.27156,112.58039,131.17554,119.09151,110.51898,121.76277,124.49628,102.52938,80.45629,72.450615,71.02649,70.374466,71.291885,78.82231,88.030594,105.71,142.82306,180.20097,195.15327,199.35379,201.66064,200.98453,209.60777,246.89629,291.7354,341.04572,387.15805,408.43927,420.9729,435.20407,460.4086,490.7366,505.05487,495.40808,472.0328,439.19162,407.00085,385.23383,368.77283,351.18158,334.91098,328.71783,330.24832,328.669,322.78665,320.35858,323.2179,327.523,337.45126,354.9281,367.99893,382.3465,412.8809,457.52863,521.18414,599.5993,658.1556,658.917,639.70917,658.7697,665.38995,620.35394,564.3039,545.5971,565.46716,586.8348,596.52277,603.1739,613.0766,633.26953,663.3377,699.8677,746.6833,789.0053,798.6746,781.0797,759.3596,733.9635,701.9665,676.3465,660.0883,651.6682,650.8799,653.84546,659.8172,681.9714,757.25,911.29407,1110.3331,1215.6761,1164.8688,1044.8381,879.9635,721.969,667.3773,737.379,783.3611,743.52576,728.356,706.66895,660.3348,697.64154,782.6048,763.7328,634.8678,473.71152,400.84186,418.7856,416.0771,394.04987,355.1081,307.4909,305.46335,313.83887,279.60406,217.27863,159.8331,125.449615,90.96275,52.387596,30.88111,22.517946,22.8075,22.346882,12.095567,3.0841885,0.41791555,0.3806414,1.577524,1.9557254,0.8627747,0.20658089,0.017915457,4.2566556e-16,7.1482984e-16,3.2546772e-16,0.0,0.0,0.0,0.0,0.0,0.0,0.0,0.0,0.0,0.0,0.0,0.0,0.0,0.0,0.0,0.0,0.0,0.0,0.0,0.0,0.0,0.0,0.0,0.0,0.0,0.0,0.0,0.0,0.0,0.0,0.0,0.0,0.0,0.0,0.0,0.0,0.0,0.0,0.0,0.0,0.0,0.0,0.0,0.0,0.0,0.0,0.0,0.0,0.0,0.0,0.0,0.0,0.0,0.0,0.0,0.0,0.0,0.0,0.0,0.0,0.0,0.0,0.0,0.0,0.0,0.0,0.0,0.0,0.0,0.0,0.0,0.0,0.0,0.0,0.0,0.0,0.0,0.0,0.0,0.0,0.0,0.0,0.0,0.0,0.0,0.0,0.0,0.0,0.0,0.0,0.0,0.0,0.0,0.0,0.0,0.0,0.0,0.0,0.0,0.0,0.0,0.0,0.0,0.0,0.0,0.0,0.0,0.0,0.0,0.0,0.0,0.0,0.0,0.0,0.0,0.0,0.0,0.0,0.0,0.0,0.0,0.0,0.0,0.0,0.0,0.0,0.0,0.0,1.3156601e-13,0.29745254,8.378973,57.451984,165.16516,270.58142,361.7392,409.6512,388.3529,323.09113,222.42122,118.43845,43.124672,12.983074,6.951305,6.3252654,5.1990438,8.410679,25.367264,63.59579,148.22386,301.703,425.48627,428.89572,335.15225,195.97307,79.70551,22.164368,5.186855,1.2535672,0.24843669,0.030734906,0.001929717,7.931822e-05,0.0022005553,0.04998954,0.98193526,5.7059045,15.735281,32.557926,55.39646,85.62109,125.04517,156.09273,181.93263,254.18663,361.9803,447.2932,519.26324,600.32776,710.4647,849.3661,909.8845,814.8439,634.8665,458.53278,317.528,213.91437,138.43651,86.2948,51.384914,25.772205,9.047898,1.723692,0.12939666,0.0015881392,0.0,0.0,0.0,0.0,0.0,0.0,0.0,0.0,0.0,0.0,0.0,0.0,0.0,0.0,0.0,0.0,0.0,0.0,0.0,0.0,0.0,0.0,0.0,0.0,0.0,0.0,0.0,0.0,0.0,0.0,0.0,0.0,0.0,0.0,0.0,0.0,0.0,0.0,0.0,0.0,0.0,0.0,0.0,0.0,0.0,0.0,0.0,0.0,0.0,0.0,0.0,0.0,0.0,0.0,0.0,0.0,0.0,0.0,0.0,0.0,0.0,0.0,0.0,0.0,0.0,0.0,0.0,0.0,0.0,0.0,0.0,0.0,0.0,0.0,0.0,0.0,0.0,0.0,0.0,0.0,0.0,0.0,0.0,0.0,0.0,0.0,0.0,0.0,0.0,0.0,0.0,0.0,0.0,0.0,0.0,0.0,0.0,0.0,0.0,0.0,0.0
554.77966,550.91095,567.2821,562.6838,536.5384,508.5542,488.2023,484.72046,498.69794,506.591,485.8346,442.11462,400.8437,373.23907,361.31207,379.34714,424.447,458.63586,453.41644,415.86105,380.63986,356.5204,335.1759,330.07077,329.9044,319.43756,294.63904,269.87897,260.99225,251.09879,228.82542,204.06967,177.47646,150.5791,132.39607,121.949974,112.456825,103.16439,96.76744,94.83309,93.35903,89.9261,87.24847,91.79919,103.76643,110.150185,100.71629,79.710335,63.913143,60.456093,71.325424,95.33476,103.40746,93.79328,100.07928,128.875,133.59537,101.71857,76.42812,70.4539,71.07853,70.604485,75.24513,85.51642,97.13407,121.654305,166.987,218.31555,247.70004,254.14803,251.67493,241.92844,231.38469,241.91206,279.63242,330.45306,374.42355,394.02435,395.8922,396.13223,420.2999,472.6721,522.82745,532.2187,499.72025,458.17584,421.70566,394.97757,373.35803,352.42767,340.08783,340.9465,342.81604,335.79108,331.17987,338.8304,352.0613,354.2913,350.1147,356.7738,375.47458,406.89954,454.8677,515.82086,584.2805,636.21484,648.719,631.67706,614.16077,612.81146,603.2974,567.7877,532.7531,542.2154,587.6451,614.55255,614.9346,621.78064,643.5367,673.4491,706.7465,743.97235,787.0283,830.45526,850.0381,843.30005,829.0787,798.8437,756.0289,722.0737,701.1546,691.51105,692.23456,698.4007,702.4287,713.49164,774.68915,889.08386,1050.8501,1175.5922,1148.792,1025.9606,893.4968,799.5702,765.89136,816.8335,830.53094,740.83124,658.785,608.4997,589.92596,625.3145,657.2318,594.0938,475.47543,389.6908,361.93872,393.37607,434.6131,450.70883,425.9137,379.8252,354.51398,361.5558,368.62332,333.4823,271.3495,216.18443,149.13342,71.45374,25.998005,13.616592,12.18087,11.097282,5.9551697,1.5719291,0.33428082,0.0707261,0.090269476,0.059796654,3.282212e-13,3.8719557e-14,3.4235064e-15,0.0,0.0,0.0,0.0,0.0,0.0,0.0,0.0,0.0,0.0,0.0,0.0,0.0,0.0,0.0,0.0,0.0,0.0,0.0,0.0,0.0,0.0,0.0,0.0,0.0,0.0,0.0,0.0,0.0,0.0,0.0,0.0,0.0,0.0,0.0,0.0,0.0,0.0,0.0,0.0,0.0,0.0,0.0,0.0,0.0,0.0,0.0,0.0,0.0,0.0,0.0,0.0,0.0,0.0,0.0,0.0,0.0,0.0,0.0,0.0,0.0,0.0,0.0,0.0,0.0,0.0,0.0,0.0,0.0,0.0,0.0,0.0,0.0,0.0,0.0,0.0,0.0,0.0,0.0,0.0,0.0,0.0,0.0,0.0,0.0,0.0,0.0,0.0,0.0,0.0,0.0,0.0,0.0,0.0,0.0,0.0,0.0,0.0,0.0,0.0,0.0,0.0,0.0,0.0,0.0,0.0,0.0,0.0,0.0,0.0,0.0,0.0,0.0,0.0,0.0,0.0,0.0,0.0,0.0,0.0,0.0,0.0,0.0,0.0,0.0,0.0,0.0,0.0,0.0,0.0,6.8693042e-15,0.005800613,0.2597454,4.228914,25.136557,69.34834,117.352745,172.71606,214.17488,223.30025,220.68501,167.82477,77.17578,19.684248,2.6024575,0.17225271,0.08494529,0.10083335,0.5355425,3.9088068,20.682486,92.1922,238.8313,319.62732,259.5261,162.96751,84.98485,31.910149,7.065351,0.8251428,0.05845126,0.0043446925,2.0351012e-05,2.6624993e-16,2.9124884e-17,1.4330864e-15,0.0031338432,0.1295935,1.0672181,4.206529,10.884955,22.777502,47.056175,86.23686,126.29289,149.60547,187.42299,271.4862,371.18832,432.56714,468.14304,548.6861,682.3677,799.76697,816.1457,714.21875,546.502,375.75876,239.14276,140.10449,73.94195,34.410748,12.387403,2.7418208,0.29654917,0.00992268,2.22973e-16,0.0,0.0,0.0,0.0,0.0,0.0,0.0,0.0,0.0,0.0,0.0,0.0,0.0,0.0,0.0,0.0,0.0,0.0,0.0,0.0,0.0,0.0,0.0,0.0,0.0,0.0,0.0,0.0,0.0,0.0,0.0,0.0,0.0,0.0,0.0,0.0,0.0,0.0,0.0,0.0,0.0,0.0,0.0,0.0,0.0,0.0,0.0,0.0,0.0,0.0,0.0,0.0,0.0,0.0,0.0,0.0,0.0,0.0,0.0,0.0,0.0,0.0,0.0,0.0,0.0,0.0,0.0,0.0,0.0,0.0,0.0,0.0,0.0,0.0,0.0,0.0,0.0,0.0,0.0,0.0,0.0,0.0,0.0,0.0,0.0,0.0,0.0,0.0,0.0,0.0,0.0,0.0,0.0,0.0,0.0,0.0,0.0,0.0,0.0,0.0,0.0
572.40845,580.1567,600.9494,596.7209,559.0007,523.61255,512.71405,528.5301,549.4109,549.7441,515.54175,455.5265,402.302,372.99597,358.62076,375.25272,421.8735,451.33185,448.38705,423.9305,402.82294,377.6827,359.78534,362.81067,360.49863,331.94165,294.71292,275.77298,275.63107,263.81598,226.63078,187.6472,157.3697,135.85927,123.43661,114.40328,106.02563,97.893616,90.64082,86.371315,82.78001,78.99308,77.65055,84.212006,91.988655,92.44914,83.65083,66.0895,53.528053,50.358635,59.385136,78.74597,87.35525,84.08965,89.91217,113.14975,116.83564,91.82742,71.689064,68.0737,72.83587,76.76607,81.1562,92.631226,112.8632,141.82326,184.22556,232.29596,270.69315,297.77283,306.15845,290.75238,262.44724,244.53616,262.15533,300.88544,331.18884,333.48395,331.893,345.06946,377.4503,436.1238,497.49936,512.44415,471.97186,430.44846,400.0629,377.8508,361.19214,353.7559,358.4773,362.92636,356.89673,350.6292,360.24954,389.73883,406.5955,392.97882,373.7827,377.1427,403.57782,451.50577,517.99786,603.0265,679.33636,700.9696,670.53754,633.50745,608.187,596.33984,582.783,555.7777,532.03796,545.8539,592.6048,612.07916,597.0716,603.5824,639.7421,683.0688,724.56335,767.8949,814.61206,862.7399,899.5586,918.1964,910.0975,862.991,805.24927,770.58136,752.0423,740.2111,742.41876,756.59064,754.0099,756.5743,829.56946,921.439,1001.9194,1058.565,1045.1559,999.96075,964.65424,910.6484,854.3351,853.33234,857.57574,771.5769,661.12506,620.64777,624.75555,615.7487,582.0656,522.6953,459.83112,429.44626,423.17465,440.42505,486.6887,516.21326,489.0104,432.60538,398.74033,415.7162,438.69525,394.48694,307.7313,241.95093,172.1882,83.408195,26.327541,9.931756,5.2180433,2.6790085,1.0923955,0.38053307,0.14638768,0.02077815,1.3882163e-14,0.0,0.0,0.0,0.0,0.0,0.0,0.0,0.0,0.0,0.0,0.0,0.0,0.0,0.0,0.0,0.0,0.0,0.0,0.0,0.0,0.0,0.0,0.0,0.0,0.0,0.0,0.0,0.0,0.0,0.0,0.0,0.0,0.0,0.0,0.0,0.0,0.0,0.0,0.0,0.0,0.0,0.0,0.0,0.0,0.0,0.0,0.0,0.0,0.0,0.0,0.0,0.0,0.0,0.0,0.0,0.0,0.0,0.0,0.0,0.0,0.0,0.0,0.0,0.0,0.0,0.0,0.0,0.0,0.0,0.0,0.0,0.0,0.0,0.0,0.0,0.0,0.0,0.0,0.0,0.0,0.0,0.0,0.0,0.0,0.0,0.0,0.0,0.0,0.0,0.0,0.0,0.0,0.0,0.0,0.0,0.0,0.0,0.0,0.0,0.0,0.0,0.0,0.0,0.0,0.0,0.0,0.0,0.0,0.0,0.0,0.0,0.0,0.0,0.0,0.0,0.0,0.0,0.0,0.0,0.0,0.0,0.0,0.0,0.0,0.0,0.0,0.0,0.0,0.0,0.0,0.0,0.0,0.0,0.0,9.989231e-15,0.082883015,2.4039438,15.958741,42.38729,59.777985,70.70628,93.24944,120.876656,152.01071,181.56247,141.70638,53.752552,9.448114,0.71396244,0.020741666,3.2594067e-05,1.32829284e-14,0.020622816,0.2517117,5.1548386,40.761684,129.0956,178.2069,124.38852,53.810265,19.05306,5.607319,1.0281965,0.08358241,0.00096100464,1.5264107e-15,2.7252295e-18,1.3380051e-30,0.0,0.0,6.163053e-16,0.00056422077,0.05675779,0.42217597,1.3539283,4.470666,17.027542,45.115158,78.427055,97.71078,119.51421,197.35582,319.08282,388.7065,389.19547,420.5837,517.70825,650.0021,768.7736,775.114,637.87823,440.4345,270.2646,150.14537,70.98238,26.025301,6.5479994,0.8756619,0.036282144,3.8339746e-05,0.0,0.0,0.0,0.0,0.0,0.0,0.0,0.0,0.0,0.0,0.0,0.0,0.0,0.0,0.0,0.0,0.0,0.0,0.0,0.0,0.0,0.0,0.0,0.0,0.0,0.0,0.0,0.0,0.0,0.0,0.0,0.0,0.0,0.0,0.0,0.0,0.0,0.0,0.0,0.0,0.0,0.0,0.0,0.0,0.0,0.0,0.0,0.0,0.0,0.0,0.0,0.0,0.0,0.0,0.0,0.0,0.0,0.0,0.0,0.0,0.0,0.0,0.0,0.0,0.0,0.0,0.0,0.0,0.0,0.0,0.0,0.0,0.0,0.0,0.0,0.0,0.0,0.0,0.0,0.0,0.0,0.0,0.0,0.0,0.0,0.0,0.0,0.0,0.0,0.0,0.0,0.0,0.0,0.0,0.0,0.0,0.0,0.0,0.0,0.0,0.0,0.0
596.74084,611.66345,624.3839,607.2481,564.9305,538.4745,546.4978,580.0786,595.66846,578.9786,523.0459,454.95422,406.09937,381.34872,361.68777,363.61722,381.5913,388.85318,388.47177,389.94107,397.2232,394.22562,394.49966,403.71384,392.22668,344.38995,301.97662,285.59058,281.07126,259.82025,219.14238,180.4746,154.24525,139.76656,126.47848,109.66283,96.77279,90.028145,85.10127,81.11178,76.28341,71.55257,68.83061,72.125015,73.96602,71.87428,66.052704,56.01712,47.847492,46.022205,57.1738,76.66915,88.48402,85.5216,82.79041,91.178215,93.2868,78.528984,63.860783,61.109097,66.70207,73.64128,82.79321,103.23461,131.89018,158.73914,191.30655,228.69412,256.1364,282.37976,292.9858,281.59,261.6468,253.23697,266.54523,302.24313,339.29584,347.83054,348.18802,356.31735,368.74677,399.11752,446.13187,459.32605,433.42255,402.94916,378.73508,365.7893,364.61438,378.30045,391.4861,387.20908,375.36227,381.76562,414.32816,443.66385,436.53763,402.8817,385.2864,407.06448,457.3922,521.3856,605.62897,704.6462,777.7921,778.2332,722.07227,670.8843,641.82587,627.338,607.7383,573.97595,542.4697,541.75714,570.90656,577.977,565.3247,592.9714,645.7313,687.55194,726.2963,771.77185,822.0536,875.3425,934.54956,985.23486,981.8598,919.22107,857.90247,831.1246,816.9908,803.5821,815.8544,842.6105,835.0062,823.48,878.72943,959.08936,1013.75165,1014.8963,980.8311,985.9838,1013.2383,978.52704,897.6817,835.12506,798.208,731.6691,676.639,694.9365,714.7261,680.3681,632.3078,593.93097,573.2973,577.8768,566.6358,542.0778,565.2025,586.21814,541.197,473.18045,430.6403,423.42636,406.84055,321.55264,207.9488,142.10983,96.08823,46.103447,19.588188,9.728958,3.5280235,0.76654965,0.09004961,0.03034238,0.017267061,0.0018325927,7.935443e-27,0.0,0.0,0.0,0.0,0.0,0.0,0.0,0.0,0.0,0.0,0.0,0.0,0.0,0.0,0.0,0.0,0.0,0.0,0.0,0.0,0.0,0.0,0.0,0.0,0.0,0.0,0.0,0.0,0.0,0.0,0.0,0.0,0.0,0.0,0.0,0.0,0.0,0.0,0.0,0.0,0.0,0.0,0.0,0.0,0.0,0.0,0.0,0.0,0.0,0.0,0.0,0.0,0.0,0.0,0.0,0.0,0.0,0.0,0.0,0.0,0.0,0.0,0.0,0.0,0.0,0.0,0.0,0.0,0.0,0.0,0.0,0.0,0.0,0.0,0.0,0.0,0.0,0.0,0.0,0.0,0.0,0.0,0.0,0.0,0.0,0.0,0.0,0.0,0.0,0.0,0.0,0.0,0.0,0.0,0.0,0.0,0.0,0.0,0.0,0.0,0.0,0.0,0.0,0.0,0.0,0.0,0.0,0.0,0.0,0.0,0.0,0.0,0.0,0.0,0.0,0.0,0.0,0.0,0.0,0.0,0.0,0.0,0.0,0.0,0.0,0.0,0.0,0.0,0.0,0.0,0.0,0.0,0.0,0.0,1.8334131e-13,0.32575724,10.169658,61.259968,132.57964,135.96597,115.58378,135.48573,156.3802,163.38367,158.59715,105.80792,33.00016,4.2531705,0.16944838,0.0014256424,1.1225753e-15,2.7511016e-27,8.4470115e-15,0.003034781,1.0576811,11.735146,43.277695,62.51842,40.393055,12.379132,2.2024758,0.3165155,0.035822008,0.0018857286,6.625601e-28,1.0649972e-28,0.0,0.0,0.0,0.0,3.8539685e-29,8.7614375e-17,1.1320879e-16,5.4556708e-14,0.010579504,0.36948535,3.5483088,14.4043045,31.543901,52.230583,81.56613,147.80951,242.19548,289.14587,273.32303,287.78384,376.6284,488.9696,621.1426,724.20044,681.8209,508.32336,316.07288,168.79163,72.070076,21.253202,3.6657996,0.2882906,0.0030305758,1.6939139e-17,0.0,0.0,0.0,0.0,0.0,0.0,0.0,0.0,0.0,0.0,0.0,0.0,0.0,0.0,0.0,0.0,0.0,0.0,0.0,0.0,0.0,0.0,0.0,0.0,0.0,0.0,0.0,0.0,0.0,0.0,0.0,0.0,0.0,0.0,0.0,0.0,0.0,0.0,0.0,0.0,0.0,0.0,0.0,0.0,0.0,0.0,0.0,0.0,0.0,0.0,0.0,0.0,0.0,0.0,0.0,0.0,0.0,0.0,0.0,0.0,0.0,0.0,0.0,0.0,0.0,0.0,0.0,0.0,0.0,0.0,0.0,0.0,0.0,0.0,0.0,0.0,0.0,0.0,0.0,0.0,0.0,0.0,0.0,0.0,0.0,0.0,0.0,0.0,0.0,0.0,0.0,0.0,0.0,0.0,0.0,0.0,0.0,0.0,0.0,0.0,0.0,0.0
